# .PCD v0.7 - Point Cloud Data file format
VERSION 0.7
FIELDS x y z
SIZE 4 4 4
TYPE F F F
COUNT 1 1 1
WIDTH 1442
HEIGHT 1
VIEWPOINT 0 0 0 1 0 0 0
POINTS 1442
DATA ascii
3.0425525 -11.455608 0.15088128
3.6170154 -11.659875 0.12076436
3.832602 -11.560482 0.086666495
4.5357985 -11.74687 -0.21248329
4.7248931 -11.683928 -0.21314315
5.011168 -11.713209 -0.19453001
5.3881073 -11.6959 0.034379065
5.9109416 -11.556365 -0.14726879
-9.6913853 -11.6487 0.047470182
-8.2654781 -11.594784 0.059839025
-8.0282097 -11.567761 0.060994789
-7.6351562 -11.629797 0.098563507
-7.2989378 -11.656976 0.06660451
-6.8474398 -11.575027 0.068362236
-6.5913248 -11.51516 0.062937595
-5.9202933 -11.478572 0.034527622
-5.5447869 -11.543039 0.037836201
-5.2497625 -11.54728 -0.072439149
-4.7581697 -11.591618 -0.14143367
-4.4230323 -11.599592 -0.13739015
-4.013814 -11.613462 -0.13269822
-3.6488938 -11.534466 -0.021287056
-3.2499859 -11.525128 -0.018146934
-2.8704944 -11.535563 -0.2263211
-2.4259906 -11.605407 -0.22233474
-2.1097877 -11.662827 -0.1844227
-0.80506635 -11.445371 -0.24549218
-0.44753221 -11.425962 -0.26274553
0.06417805 -11.565991 -0.16167112
0.42711645 -11.484118 0.0037098657
0.69006479 -11.387789 -0.16384622
1.1393739 -11.329154 -0.12877294
1.560846 -11.340707 -0.093868226
1.9782674 -11.299376 -0.059338421
2.3510752 -11.319902 -0.058935121
2.7563353 -11.292928 -0.058599114
3.1384361 -11.218183 -0.023754613
3.420501 -11.198923 -0.00032995827
3.7662418 -11.314466 0.13997203
4.4611301 -11.286285 0.14022847
4.5486431 -10.993596 0.077733032
-9.8966503 -11.441073 0.063265048
-9.7066708 -11.585331 0.086750105
-8.7934694 -11.397889 0.054068089
-8.2576132 -11.507502 0.046279058
-8.0740652 -11.40225 0.058674663
-7.5688577 -11.36383 0.035877168
-7.1202831 -11.324327 0.024056574
-6.8388247 -11.347443 0.026437139
-6.5144053 -11.242172 -0.010345304
-6.1468892 -11.119394 -0.045975909
-5.619525 -11.228745 -0.040198743
-5.2450871 -11.176487 -0.036769405
-4.8539014 -11.252151 -0.03278774
-4.4595528 -11.201916 -0.029390978
-4.1350231 -11.310241 -0.02614543
-3.8485587 -11.293699 -0.023768829
-2.4246345 -11.078677 -0.15474875
-0.83919036 -11.042644 -0.26579171
-0.44856098 -11.031511 -0.26854736
-0.22013195 -10.99686 -0.26910776
0.78445441 -10.983027 -0.1917633
0.97578019 -10.919284 -0.16582702
1.6800431 -10.863701 -0.15534879
2.0291412 -10.815396 -0.26175892
2.2994144 -10.919868 -0.25610933
2.7333684 -10.837992 -0.22230545
3.119997 -10.800649 -0.19089635
3.6406765 -10.901709 0.14141354
3.8823843 -10.934652 0.1437068
4.2281141 -10.925347 0.039628305
4.5667143 -10.843195 0.075589828
-10.114388 -11.137693 0.027720535
-8.465889 -11.16541 0.022592535
-6.7033439 -10.695949 -0.015965829
-6.4633226 -10.993973 -0.011638576
-6.1442828 -10.759991 -0.010417918
-5.6577663 -10.840804 -0.0055734236
-5.4637227 -11.017235 0.033478752
-4.8357716 -10.800624 -0.13904658
-4.4969473 -10.898514 -0.17046535
-4.0105896 -10.831595 0.047286481
-3.7048383 -10.578865 -0.062671646
-3.2302961 -10.536545 -0.0061642695
-2.9338224 -10.64582 -0.022878038
-2.4825275 -10.703516 -0.15267548
-1.9826401 -10.661675 -0.14869909
-1.5439473 -10.464756 -0.22807351
-1.1364788 -10.555258 -0.25809488
-0.9799251 -10.676655 -0.25931668
-0.66863513 -10.677254 -0.2622672
-0.27210855 -10.618831 -0.27377245
0.14766979 -10.482725 -0.13988851
0.85715908 -10.577805 -0.18561247
1.2581046 -10.494517 0.0038635861
1.4277892 -10.40696 -0.15086207
2.0138729 -10.344138 0.067975998
2.3201671 -10.518907 -0.24816425
2.7384517 -10.436462 -0.21560387
3.1092536 -10.3914 -0.18612829
3.5740347 -10.3871 0.13796383
3.7846179 -10.445291 0.13432917
-7.2786846 -10.436274 -0.061411433
-6.9280324 -10.487588 -0.057226971
-6.580029 -10.647884 -0.015172476
-6.0473409 -10.590491 -0.010741094
-5.7853827 -10.400378 0.025285071
-5.4750671 -10.312473 0.09587796
-4.7649393 -10.46587 -0.13674654
-4.5652361 -10.319557 -0.16734929
-3.9681988 -10.413118 -0.07924515
-3.5991507 -10.440559 -0.056978926
-3.2030394 -10.158488 -0.08526139
-2.7239258 -10.264514 -0.049322605
-2.6993973 -10.17275 -0.049159303
-2.1171949 -10.271356 -0.10659155
-1.681066 -10.148015 -0.13307218
-1.1175039 -10.382809 -0.25439608
-0.92330015 -10.211225 -0.2794767
-0.55979633 -10.185865 -0.28164497
-0.17545818 -10.193362 -0.27984303
0.14057718 -10.175089 -0.27213272
0.60712022 -10.011123 -0.24112864
0.9815492 -10.114993 -0.17854954
1.5764377 -10.23694 0.035034023
1.7775482 -10.174655 -0.1178135
2.2398798 -10.219142 -0.086880058
2.6820898 -10.13861 -0.055746168
3.0816708 -10.021743 -0.024416523
3.612685 -10.082017 0.13365707
3.694134 -10.10898 0.13441896
4.0857644 -9.8026552 -0.12452281
-6.9192796 -10.096596 -0.022380421
-6.4081607 -10.051884 0.017202301
-5.9394245 -10.1966 0.04622709
-5.7547674 -10.045492 0.022122247
-5.5006685 -9.978117 0.090848893
-4.755446 -9.9872503 -0.13984703
-4.5620055 -9.9713488 -0.16492262
-4.0583873 -10.017329 -0.15822528
-3.7201002 -10.143981 -0.12235419
-3.1992142 -9.9287939 -0.084725142
-2.7499216 -9.9824829 -0.04967396
-2.677496 -10.090815 -0.049013481
-2.1359332 -9.8918438 -0.10467185
-1.8254211 -9.8621387 -0.13187359
-1.1463953 -9.637064 -0.26793426
-0.87605935 -9.8091164 -0.18232235
-0.66933954 -9.9168701 -0.27583012
-0.24779789 -9.6229963 -0.2896314
0.16767015 -9.8233366 -0.26369843
0.58708239 -9.7822418 -0.23255989
1.0341542 -9.6901827 -0.17222311
1.2893349 -9.7688513 -0.1713385
1.9739646 -9.7529125 -0.26118132
2.3599827 -9.6688538 -0.23143077
2.7406621 -9.6862898 -0.20314549
2.9033904 -9.5148659 -0.18093997
3.3080413 -9.6834421 -0.16552344
3.8421686 -9.738616 0.028436353
4.1769881 -9.5724087 0.059138604
-6.8048644 -9.5379524 -0.025445485
-6.4051151 -9.7732048 0.014511203
-6.3163257 -9.7044287 0.014532549
-5.7221608 -9.6337223 0.018415732
-5.2640901 -9.5963869 -0.043524869
-4.8873682 -9.5903101 -0.13499972
-4.5535059 -9.5527763 -0.16199557
-3.9879847 -9.5835304 -0.15417083
-3.5878911 -9.5980873 -0.11826268
-3.1836953 -9.4719505 -0.083601028
-2.7983971 -9.4590168 -0.050367102
-2.6544483 -9.5217304 -0.049089879
-2.1648219 -9.5879421 -0.10327554
-1.9023939 -9.4479294 -0.12905321
-1.2672089 -9.392931 -0.2633765
-1.0124228 -9.427804 -0.23391283
-0.59427452 -9.4376469 -0.29156122
-0.24293573 -9.4531136 -0.28508112
0.19275571 -9.4830008 -0.25554591
0.59218329 -9.3521824 -0.22365567
1.03587 -9.1869431 -0.19171689
1.4227086 -9.3238907 -0.22237842
2.00928 -9.3150148 -0.25127354
2.3813746 -9.2434072 -0.22313449
2.7284002 -9.3017464 -0.19674881
2.8701029 -9.1952658 -0.17628875
3.2692108 -9.1892176 -0.16075096
3.6578848 -9.2058401 -0.15108244
-6.7531877 -9.4027567 -0.02595968
-6.7429338 -9.326314 -0.026435712
-6.3222752 -9.2602196 0.010137996
-5.6906857 -9.2459707 0.014915159
-5.4127059 -9.2094307 -0.014771262
-5.1131239 -9.0494823 -0.044357806
-4.5892873 -9.177453 -0.16008326
-4.1578827 -9.2287531 -0.063768066
-3.6039302 -9.1976709 -0.11662449
-3.1902151 -9.2033758 -0.083116338
-2.9230154 -9.1355324 -0.051675349
-2.7058978 -9.0441122 -0.049792998
-2.1220613 -9.0064974 -0.09973558
-1.8577615 -8.995924 -0.15170898
-1.3035716 -9.0242195 -0.25515205
-0.98949236 -8.9595604 -0.22411183
-0.74898463 -9.1538239 -0.2849305
-0.30489293 -9.0245028 -0.15675327
0.30382955 -9.0713396 -0.12922494
0.52643484 -8.8219872 -0.26520416
0.99761701 -9.1024313 -0.19027394
1.4231071 -8.7704172 -0.00078310259
1.7237531 -8.8753757 -0.26724845
2.3658564 -8.8309698 -0.21498093
2.7304466 -8.8874359 -0.18996531
2.8896275 -8.7673569 -0.17050467
3.2466989 -8.8596315 -0.1576186
3.6477795 -8.9327221 -0.14953254
-6.6921968 -8.7810583 -0.030084478
-6.2456985 -8.7866192 0.0060782712
-5.6901464 -8.9802427 -0.05081708
-5.442935 -8.8725042 -0.017447369
-5.08989 -8.8129492 -0.045164749
-4.6260028 -8.7625866 -0.15803306
-4.1920047 -8.7538242 -0.17979737
-3.8888805 -8.8706598 -0.14779431
-3.3912113 -8.7055874 -0.08431147
-2.9746695 -8.7265034 -0.052438818
-2.4656928 -8.6382055 -0.18132685
-2.1179824 -8.5564175 -0.12371101
-1.684732 -8.5836744 -0.24918909
-1.373355 -8.6269951 -0.27270141
-1.0577689 -8.6324739 -0.29503444
-0.4275167 -8.5308523 -0.15808353
-0.33921194 -8.4792023 -0.1505236
0.074216984 -8.6478415 -0.12599449
0.49372271 -8.7310915 -0.26286253
1.1920618 -8.7162275 -0.2098888
1.4239789 -8.6003447 -0.0012933332
1.9079477 -8.4993248 -0.10357738
2.2068067 -8.4930897 -0.077548608
2.6073585 -8.4225349 -0.051689446
3.0148396 -8.3578396 -0.025556924
3.2977982 -8.2600117 -0.0070156846
3.7343709 -8.2214727 0.011942541
-6.6397085 -8.4880142 -0.031820111
-6.2539296 -8.4548674 0.0027203467
-5.7157645 -8.4390163 -0.029154943
-5.4249148 -8.4206495 -0.020542601
-4.9869409 -8.3891163 -0.045986921
-4.5997086 -8.390233 -0.155349
-4.1609344 -8.3492842 -0.17559765
-3.8513193 -8.4930868 -0.1446678
-3.2670207 -8.159914 -0.081972532
-2.9363203 -8.2850409 -0.03018106
-2.3896585 -8.4743538 -0.17812009
-2.0933986 -8.3460741 -0.12172892
-1.7995651 -8.0788918 -0.14080556
-1.4332193 -8.2687855 -0.239022
-0.98835474 -8.1224136 -0.23106144
-0.71633083 -8.1527414 -0.20530644
-0.30940154 -8.0251045 -0.17564785
0.0027454998 -8.0451374 -0.15036608
0.56116182 -8.2316532 -0.22486418
0.85048676 -8.2250957 -0.20075907
1.4603987 -8.133297 -0.27139485
1.8118967 -8.0826283 -0.24713048
2.1664267 -8.0346279 -0.2229827
2.4712906 -8.0828218 -0.2010027
2.8665709 -8.0884027 -0.16113347
3.2157996 -8.1271105 -0.0076023508
3.6197114 -8.0826149 -0.02127579
-6.6209421 -8.0895376 -0.03474056
-6.218554 -8.0301065 -0.0012373198
-5.6038384 -8.1734943 0.048753373
-5.4159946 -8.0261431 -0.080727294
-4.9765654 -7.9662237 -0.047824092
-4.6637034 -8.0788946 -0.15455331
-4.2409348 -7.9017377 -0.1998761
-3.907841 -7.8802309 -0.14143279
-3.584559 -7.946826 -0.11097693
-3.0197058 -7.799901 -0.05365812
-2.6225312 -7.7948594 -0.12328053
-2.228004 -7.8876424 -0.094860129
-1.8260576 -7.8494143 -0.13852023
-1.2905788 -7.8033929 -0.25028396
-1.028453 -7.7659454 -0.2000296
-0.64233357 -7.7596655 -0.17315416
-0.32829171 -7.8817487 -0.1732223
0.0030637626 -7.9614186 -0.14930116
0.70549679 -7.8274417 -0.23958105
1.0418267 -7.699584 -0.21197747
1.4040365 -7.7334495 -0.14356492
1.7919247 -7.6959615 -0.11989233
2.1256602 -7.727726 -0.097448505
2.6418779 -7.5823112 -0.049912348
3.0172417 -7.4580932 -0.026369127
3.2409096 -7.4905195 -0.011452617
-6.5267611 -7.8222938 -0.03588888
-6.2154994 -7.6701865 -0.0048385989
-5.9006476 -7.5017309 0.024345065
-5.245369 -7.5608349 0.029220825
-5.1208143 -7.6099095 -0.1053264
-4.6685038 -7.5821609 -0.15186128
-4.2641611 -7.5967803 -0.19690725
-3.8882537 -7.5402441 -0.13896827
-3.5081327 -7.4624949 -0.10801101
-2.9942181 -7.5229578 -0.053676628
-2.6178551 -7.4694896 -0.12073928
-2.1202691 -7.5453224 -0.11550794
-1.9121809 -7.4714742 -0.13527381
-1.3913575 -7.2755384 -0.23777263
-0.95411527 -7.3926015 -0.19171834
-0.58061373 -7.312634 -0.16483036
-0.38348782 -7.4511247 -0.14774592
0.26999533 -7.4439325 -0.25105909
0.59996182 -7.3813872 -0.20474926
0.96085364 -7.4459558 -0.20602448
1.1916533 -7.4295526 -0.20248185
1.8955986 -7.4483843 -0.23134007
2.1595566 -7.3494053 -0.20767762
2.4840834 -7.2844982 -0.18585995
2.9990463 -7.2786903 -0.026533978
3.2704148 -7.3047299 -0.012680525
3.5762706 -7.1797748 -0.027768189
-6.4654059 -7.2450495 -0.017532693
-6.2451515 -7.2281461 -0.0095850397
-5.8162007 -7.2520895 0.021793393
-5.3917918 -7.2279835 -0.082552925
-5.1053066 -7.2367229 -0.10514724
-4.6974463 -7.165482 -0.15018189
-4.2680507 -7.1841702 -0.14293925
-3.8834505 -7.1186185 -0.11196329
-3.4541123 -7.1139469 -0.10591878
-3.1281729 -7.2785649 -0.078940533
-2.6100364 -7.1580491 -0.11829446
-2.3110831 -6.9914274 -0.091234073
-1.7817109 -7.0958171 -0.1516396
-1.3391484 -6.9603829 -0.20781045
-1.043094 -7.0379281 -0.1853351
-0.73351336 -7.0047393 -0.16058004
-0.32290667 -6.875751 -0.13533989
0.23400058 -6.9077463 -0.11239304
0.45135531 -7.0071974 -0.17551731
0.90263087 -6.9788914 -0.19509375
1.2895395 -6.7925611 -0.13510923
1.5931934 -6.7860603 -0.12914257
1.9900382 -6.7053566 -0.11945168
3.1641858 -7.0045505 -0.15711227
3.7860022 -6.9314475 0.023373602
-6.5138474 -6.6982188 -0.046374671
-6.1890173 -6.7648587 -0.013876611
-5.8765478 -6.8713231 0.016670985
-5.2602577 -6.9550347 0.021670176
-5.1092653 -6.9130588 -0.10532074
-4.703629 -6.7946162 -0.1484815
-4.2153587 -6.6578965 -0.13919094
-3.7779553 -6.7927485 -0.13266154
-3.486186 -6.7420163 -0.10497075
-2.994962 -6.7123919 -0.054593764
-2.5443437 -6.8451052 -0.11512226
-2.2413692 -6.6970429 -0.13093038
-1.9607847 -6.7229004 -0.14871049
-1.5550985 -6.4793625 -0.22326498
-1.2185516 -6.5226927 -0.16002619
-0.56930208 -6.4146023 -0.1331003
-0.26841524 -6.6290388 -0.13136475
0.068035416 -6.6272993 -0.20824142
0.51011568 -6.5935392 -0.16684391
0.91889745 -6.5742607 -0.14607354
1.2674468 -6.3746099 -0.12395977
1.6385621 -6.3332744 -0.20159659
2.0239916 -6.4669662 -0.17384779
-6.1188803 -6.5622892 -0.015375102
-5.8352933 -6.4841623 0.012106529
-5.2979789 -6.4280853 0.014657104
-5.2135344 -6.4174643 0.015314957
-4.700314 -6.3939447 -0.14660944
-4.1840763 -6.3398242 -0.13701548
-3.7914424 -6.4762802 -0.13104407
-3.4901054 -6.4478073 -0.1039874
-3.0151606 -6.3244762 -0.055323794
-2.6893513 -6.1341 -0.05208157
-2.2717574 -6.2534342 -0.24528722
-1.9390997 -6.2124767 -0.14150892
-1.4813066 -6.24963 -0.21260037
-0.93748403 -6.2087436 -0.16743471
-0.65548491 -6.1040235 -0.14415273
-0.39548388 -6.1467028 -0.12793088
0.2235392 -6.0052552 -0.20871513
0.64087039 -6.1813049 -0.21322362
0.80096507 -6.0646248 -0.20193274
1.3160752 -6.1071901 -0.12021284
1.6791506 -6.0878458 -0.19562982
2.112654 -6.0506935 -0.16004111
2.5310071 -6.0715857 -0.027294712
2.7539179 -5.9704442 -0.021317439
3.1544929 -5.8663421 -0.10652685
-6.4027095 -5.9251256 -0.073308535
-5.8886452 -6.1806617 0.0019022394
-5.3037081 -6.0017099 0.0071912613
-5.0640259 -6.0947957 -0.10524835
-4.7095585 -6.0000391 -0.14516835
-4.2782917 -5.9931078 -0.15865089
-3.8162541 -5.8635798 -0.12816304
-3.5413888 -5.8370371 -0.12330576
-3.0473495 -5.9236045 -0.076175161
-2.6178215 -5.9210467 -0.051588431
-2.2369773 -5.9094205 -0.10422793
-1.9107893 -5.8631463 -0.13643923
-1.5047923 -5.8724384 -0.16734402
-1.1399457 -5.8058586 -0.1614693
-0.78811002 -5.7930984 -0.13985547
-0.44070005 -5.7461905 -0.14172684
0.14120777 -5.6785507 -0.19934173
0.49223843 -5.796237 -0.20199771
1.3658966 -5.7128916 -0.11473155
1.6968392 -5.7200408 -0.18651223
2.1119766 -5.6944165 -0.15336995
2.4037619 -5.6706471 -0.13682546
2.7217135 -5.5860939 -0.021497527
3.2121727 -5.6599584 0.0073275734
-5.5759211 -5.5779643 -0.020957457
-4.9936905 -5.5346689 0.027862689
-4.7066216 -5.6213307 -0.14373213
-4.3634195 -5.5018444 -0.15720867
-3.9630818 -5.6268897 -0.14982688
-3.4810286 -5.617178 -0.12109073
-3.1052866 -5.5289335 -0.095298454
-2.7237577 -5.4913602 -0.053320736
-2.1801255 -5.4675565 -0.11753202
-2.0063725 -5.4486604 -0.13234465
-1.5290911 -5.4365001 -0.14210346
-1.1778318 -5.4064088 -0.1702863
-0.70631069 -5.3320456 -0.13108636
0.033281542 -5.3241978 -0.18930812
1.4042172 -5.3397465 -0.10960714
1.6823213 -5.3191228 -0.093582809
2.1063178 -5.3102479 -0.14623192
2.4757361 -5.2607927 -0.028174305
2.692843 -5.2516809 -0.025608325
3.172487 -5.2015877 0.00083847903
-5.8601408 -5.3811307 -0.049019255
-5.5212789 -5.2176676 -0.024292218
-5.2054477 -5.2268028 0.00047569536
-4.704433 -5.2044277 -0.14238934
-4.340322 -5.1973004 -0.15492734
-3.9551141 -5.1524873 -0.14650109
-3.4911902 -5.2196217 -0.11922014
-3.1690104 -5.1020308 -0.16624446
-2.7032487 -5.0061641 -0.053873159
-2.3426645 -5.0668769 -0.11611357
-2.0421557 -5.0498595 -0.12777755
-1.546136 -5.0254531 -0.18279202
-1.1085751 -5.0190482 -0.16058184
-0.80200672 -5.0730977 -0.12748064
0.017172929 -5.0088496 -0.18006124
1.6190577 -4.9029784 -0.18076062
1.9873488 -4.8946037 -0.15318434
2.3674188 -4.8732939 -0.12461133
2.6595054 -4.7855611 -0.026387842
3.1296751 -4.9539518 -0.0026514884
-5.8344154 -4.8729196 -0.0082766674
-5.5561099 -4.8342924 -0.028722538
-5.0330462 -4.699059 -0.10724951
-4.6834898 -4.8629909 -0.14107974
-4.4092431 -4.7797365 -0.1738098
-3.95243 -4.8189363 -0.088975675
-3.5282159 -4.7379088 -0.1176837
-3.1970229 -4.7513571 -0.17981367
-2.8096955 -4.7619462 -0.055590197
-2.2563982 -4.8016763 -0.11227347
-2.0365193 -4.733377 -0.12372389
-1.5226592 -4.6380844 -0.17283913
-1.1406275 -4.6227603 -0.12354518
-0.91565913 -4.8073521 -0.12406686
1.654574 -4.4737782 -0.16944151
2.0196679 -4.4734745 -0.14480893
2.3676031 -4.4666605 -0.11878721
2.6746495 -4.4220309 -0.030938195
3.0492995 -4.386517 -0.010745192
-5.8123102 -4.5503755 -0.012271116
-5.5816269 -4.3864026 0.0082769934
-5.0292025 -4.5289598 -0.11289675
-4.8034925 -4.3554058 -0.12328599
-4.3969135 -4.3070812 -0.1704336
-4.081923 -4.3578448 -0.14485377
-3.6141813 -4.2454114 -0.13386838
-3.1795583 -4.3128943 -0.18898366
-2.9169381 -4.3123465 -0.21286094
-2.2919269 -4.3452735 -0.12352802
-2.0628219 -4.4064817 -0.12017261
-1.6489034 -4.4208255 -0.18376976
-1.2435509 -4.1815128 -0.11759216
1.6418545 -4.0880527 -0.093848594
2.0537281 -4.0869961 -0.13745101
2.3674142 -4.0798249 -0.11345229
2.6535237 -4.0303464 -0.033567593
3.0240109 -4.1523552 -0.014195593
-5.8014488 -3.9834542 -0.046821781
-5.5849161 -3.9754038 0.0022136215
-5.211349 -4.0824871 -0.078910068
-4.789742 -4.0743341 -0.12331405
-4.3797312 -3.9757748 -0.16814476
-3.9278851 -3.945838 -0.15625657
-3.647578 -3.9687991 -0.13317826
-3.1896632 -3.9324875 -0.19849101
-2.8965886 -3.9371445 -0.047256708
-2.2306128 -3.8074279 -0.10583574
-2.1666019 -3.7840581 -0.11491034
-1.7729326 -3.8381035 -0.17124322
-1.1960832 -3.8242712 -0.12326019
-0.98656422 -3.8112674 -0.14539179
1.6693506 -3.6699598 -0.088786416
1.9903886 -3.6777444 -0.14112201
2.3702824 -3.6677132 -0.1080869
2.6015267 -3.4722171 -0.03521461
-5.8561063 -3.7450674 -0.074025534
-5.5813875 -3.6871333 -0.002013186
-5.0320883 -3.4505494 -0.093483999
-4.618052 -3.6207266 -0.13817734
-4.4301877 -3.6064904 -0.16782179
-4.1265421 -3.4955537 -0.12690023
-3.5672302 -3.5796499 -0.15959385
-3.2615075 -3.5735917 -0.18029203
-2.7612579 -3.5146499 -0.058101617
-2.402138 -3.4693635 -0.11647901
-2.1412394 -3.3831549 -0.11017022
-1.46242 -3.3743222 -0.10830452
-1.2497518 -3.4336197 -0.12760843
1.7820886 -3.388232 -0.086346343
1.9927182 -3.2930524 -0.13293408
2.3675601 -3.2603137 -0.10306714
2.6137433 -3.3330655 -0.03631416
-6.2999506 -3.3960111 -0.094662078
-6.1875672 -3.1850867 -0.094911352
-5.589623 -3.2513144 -0.008467257
-5.0819774 -3.2305937 -0.095772862
-4.8291502 -3.1427424 -0.10929726
-4.4282393 -3.1945703 -0.14998145
-4.0334067 -3.1984465 -0.15532571
-3.5662785 -3.1513762 -0.15633698
-3.2889471 -3.1237447 -0.10793519
-2.80829 -3.2442079 -0.059660345
-2.3517809 -3.1557541 -0.11247641
-2.0347035 -3.0650094 -0.14871971
-1.6503026 -3.014374 -0.10667092
-1.3202283 -3.0297408 -0.13044609
2.0386305 -2.8697817 -0.12523523
2.3683655 -2.858283 -0.098602071
2.6213982 -3.0143342 -0.041117415
-6.0766702 -2.8318789 -0.076450825
-5.7171192 -2.7862117 -0.053662904
-5.0927114 -2.9503736 -0.097932592
-4.8496661 -2.7965553 -0.11158267
-4.436079 -2.7907965 -0.1501244
-4.0753431 -2.7356095 -0.15524673
-3.6531253 -2.7450211 -0.15655176
-3.3027456 -2.7514665 -0.17186762
-2.8457179 -2.7330341 -0.062259987
-2.3439388 -2.7785032 -0.10911882
-2.0386338 -2.68433 -0.14161068
-1.6592084 -2.6558583 -0.12095989
-1.3472774 -2.687566 -0.12328735
2.0036309 -2.4779174 -0.12658083
2.3685992 -2.4658506 -0.094777733
2.5660055 -2.4594991 -0.043106571
-6.0006576 -2.4790254 -0.079423971
-5.6712003 -2.5361478 -0.037818819
-5.4232955 -2.5772398 -0.031526078
-4.7841244 -2.5018415 -0.11208151
-4.4358306 -2.3870156 -0.13583326
-4.0999255 -2.3066542 -0.12761149
-3.6409214 -2.3406708 -0.15460896
-3.2581813 -2.3806164 -0.16699815
-2.9862676 -2.4499187 -0.077432103
2.0243554 -2.0376775 -0.11886495
2.314029 -2.0337512 -0.099543102
2.5331104 -2.1947401 -0.045248784
-5.8803482 -2.222393 -0.099704877
-5.8140798 -2.1342449 -0.099599138
-5.3546734 -1.9571034 -0.026170233
-4.6864018 -2.1454396 -0.13517712
-4.437541 -2.0262864 -0.15171875
-4.1182041 -1.9202188 -0.12957262
-3.688771 -1.976837 -0.15550862
-3.2583022 -1.9207715 -0.096237063
-3.0897782 -1.7574564 -0.071945786
-2.6409686 -1.7693135 -0.12919612
-1.9237069 -1.7911843 -0.13608569
-1.668126 -1.855356 -0.11591811
2.0644786 -1.7379075 -0.11524241
2.2861443 -1.6623728 -0.09599264
2.5707083 -1.8027707 -0.052138172
-5.7593293 -1.4853944 -0.08812128
-5.4191585 -1.7364737 -0.030908061
-4.7144165 -1.5463625 -0.11804701
-4.4952116 -1.4955561 -0.12782927
-4.1080956 -1.5439403 -0.15750782
-3.6864007 -1.5576736 -0.15568973
-3.3027828 -1.489387 -0.18599831
-2.9824314 -1.5705936 -0.13183524
-1.7306165 -1.6376249 -0.10980004
2.0860171 -1.2269707 -0.1100304
2.3097484 -1.2331666 -0.11002339
2.5358112 -1.23929 -0.058485612
-5.6969452 -1.2969602 -0.10093591
-5.1750145 -1.3713185 -0.11623122
-4.7844434 -0.9939962 -0.10563447
-4.535974 -1.2114563 -0.13130149
-4.1030264 -1.1804889 -0.15927613
-3.6712158 -1.153481 -0.1565304
-3.2992947 -1.1325995 -0.15407199
-3.0252554 -1.184738 -0.13371038
-2.7149587 -1.0615119 -0.076791562
2.2486091 -0.91526407 -0.085420839
2.4762371 -0.92768359 -0.045030341
-5.3835559 -0.62170333 -0.11624885
-4.7768979 -0.92971081 -0.10644283
-4.4927559 -0.77547926 -0.12121078
-4.1729722 -0.72115964 -0.15252149
-3.718051 -0.72489947 -0.13852753
-3.3245273 -0.68395007 -0.17763039
-2.9567473 -0.69284135 -0.079311222
-2.721272 -0.89115119 -0.087734297
2.5482955 -0.64259171 -0.12027258
-5.5643601 -0.25541368 -0.0614013
-5.2338796 -0.35144424 -0.080709375
-5.0703931 -0.33950284 -0.079164937
-4.4435229 -0.49380964 -0.12354798
-4.1326613 -0.38848671 -0.14275993
-3.800627 -0.34035742 -0.15674134
-3.3273144 -0.32737648 -0.18069375
-2.959795 -0.3057006 -0.084083736
-2.7214961 -0.48070753 -0.094861574
-5.6408682 0.029870614 -0.068056971
-5.2037544 -0.17541033 -0.098291352
-4.9627414 0.016127715 -0.11274547
-4.4182863 -0.021813884 -0.11621205
-4.2142534 0.049937125 -0.13836548
-3.7900109 0.0817298 -0.16209032
-3.4165819 0.089442417 -0.15945686
-3.0270426 0.11507198 -0.18161774
-5.59412 0.33689091 -0.07801456
-5.3212328 0.39969361 -0.092712462
-5.1040659 0.49839261 -0.091938764
-4.413434 0.37853798 -0.1218136
-4.2191701 0.37634701 -0.13109452
-3.8171604 0.46819746 -0.14658995
-3.3868821 0.46684483 -0.16481479
-2.9776108 0.48548314 -0.18613727
-2.7926667 0.6316703 -0.18054549
2.2735138 0.93060219 -0.094991356
2.4347186 0.73975915 -0.060409442
-5.6549301 0.63495964 -0.066087469
-5.4147587 0.70650315 -0.082218565
-4.9978514 0.79325366 -0.095393673
-4.5821319 0.8067261 -0.1189384
-4.1999249 0.78573251 -0.12489824
-3.7168107 0.86860746 -0.15127574
-3.4239349 0.87414938 -0.1642897
-3.0590611 0.77389371 -0.1874934
-2.7038255 0.88469273 -0.064624727
2.2739682 1.1737546 -0.14204167
2.4953239 1.1843139 -0.15758315
-5.6908431 1.0547061 -0.081911713
-5.440546 1.0333697 -0.070988297
-4.9605842 1.1281824 -0.1003177
-4.5568957 1.2307147 -0.11170027
-4.2313643 1.2550199 -0.12107609
-3.8965816 1.2012042 -0.12670492
-3.4183462 1.294543 -0.13052385
-2.9988358 1.2281085 -0.12024867
-2.674952 1.3884082 -0.099250957
1.9416171 1.7096519 -0.053856492
2.1716607 1.5581578 -0.13727763
2.5880165 1.5102748 -0.12876199
-5.3324451 1.733422 -0.083936393
-5.1989193 1.7448936 -0.083627261
-4.8196568 1.766158 -0.11731093
-4.2767134 1.5513694 -0.12724748
-3.8341718 1.4743297 -0.14310841
-3.4769096 1.6729323 -0.1512887
-3.0755172 1.6577009 -0.16234653
-2.6903863 1.6536286 -0.16099931
1.5002493 2.0571208 -0.11358491
1.8477898 1.9704839 -0.16929409
2.1313243 1.9953711 -0.17806639
2.4963148 1.9722203 -0.18770313
-5.3112917 1.8383474 -0.085747436
-5.0615697 1.8942181 -0.081975631
-4.6914196 2.0261137 -0.097339362
-4.1921005 2.0896537 -0.12234329
-3.8885424 2.0432961 -0.13082606
-3.615803 1.9178082 -0.12416813
-3.1553674 1.9631772 -0.2082511
-2.8250403 1.9176255 -0.17157194
1.1070416 2.3888562 -0.16786392
1.3201756 2.3022316 -0.15912804
1.6819388 2.2884088 -0.13966979
2.2045391 2.2848792 -0.15625574
2.3605883 2.1806936 -0.2162949
-5.7822132 2.5041928 -0.11901627
-5.3536196 2.2334545 -0.090082727
-5.2599273 2.2323878 -0.094846189
-4.6187577 2.5936999 -0.20556895
-4.1857615 2.5572982 -0.21374883
-3.9002817 2.322192 -0.13671662
-1.4139785 2.6787312 -0.24924177
1.0963912 2.5112145 -0.18593095
1.3459015 2.8393781 -0.18576761
1.5622373 2.7031944 -0.20013146
1.9775325 2.842298 -0.10438475
-5.8698087 2.7041912 -0.14872177
-5.4124074 2.7016633 -0.16005282
-5.2437358 2.7646132 -0.16111121
-4.800777 2.7201462 -0.17437077
-4.1995316 2.8044147 -0.20294987
-4.0106812 2.6783807 -0.19659685
-2.1628327 3.0686216 -0.23833427
-1.7223727 3.1227643 -0.21077232
-1.4814314 2.9005868 -0.22401702
-1.1723425 3.0316422 -0.22408271
1.0610332 3.2704134 -0.22214828
1.351462 3.0981269 -0.19873211
1.6408308 3.1025434 -0.22288923
1.9288956 3.0540912 -0.16208087
-5.4711437 3.2099583 -0.12341052
-5.2190051 3.2043653 -0.11820109
-2.2317827 3.4467695 -0.2175431
-1.8844688 3.3465459 -0.21306087
-1.5424873 3.2890775 -0.21468683
-1.3242145 3.4850624 -0.24185556
1.0681868 3.2931955 -0.22333206
1.3293325 3.3640471 -0.19063333
2.8589857 3.7281742 -0.12819177
-5.4517202 3.6067169 -0.13301517
-5.167335 3.5700967 -0.12692976
-2.7285137 3.7811036 -0.16780099
-2.3740864 3.7345159 -0.17505907
-1.9116145 3.6413085 -0.19023858
-1.5365386 3.7319078 -0.19969903
-1.1474597 3.7807674 -0.20805074
-0.20155926 3.8619974 -0.31586739
0.1807519 4.0035763 -0.2942639
0.41638899 4.0194426 -0.26587614
0.84690875 4.0373526 -0.30913767
1.185177 4.0550799 -0.087555945
1.6928276 4.0712643 -0.12207708
2.0160036 4.1113482 -0.2166443
2.4883556 3.9813507 -0.21599038
2.8501682 3.9591546 -0.21944301
-2.9781685 4.2342415 -0.12090231
-2.6228797 4.0729852 -0.17429452
-2.2749653 4.1536512 -0.18628034
-1.8865964 4.1149611 -0.19341911
-1.5739825 4.0066886 -0.19856383
-1.2848439 3.9937813 -0.25596675
-0.61130404 4.3515029 -0.16239294
-0.35812357 4.3009629 -0.1593122
0.13655233 4.2049742 -0.26514181
0.42475271 4.3320141 -0.2716752
0.82850015 4.2342601 -0.2792266
1.2386763 4.3136892 -0.20723921
1.616028 4.3433175 -0.22355901
2.0303926 4.3326907 -0.2679283
2.4111936 4.3124509 -0.27187017
2.6449027 4.2738004 -0.30289343
-3.1473608 4.4799886 -0.11151087
-2.7747564 4.4873919 -0.1254462
-2.4252539 4.467936 -0.18273556
-1.9343197 4.6076455 -0.16671558
-1.7762942 4.7195387 -0.16817854
-0.64102024 4.4146147 -0.18237916
-0.25557506 4.5590873 -0.26031062
-0.065521479 4.5955105 -0.24726759
0.43347925 4.5501132 -0.24341749
0.92020339 4.5922308 -0.2454244
1.1711789 4.5993233 -0.26055509
1.5604336 4.577178 -0.24717329
1.8951266 4.5517015 -0.27740324
-2.3596854 4.9382868 -0.19672982
-1.9570976 4.9743605 -0.16046725
-1.6176896 4.9929161 -0.17392714
-3.055321 5.4098544 -0.22970288
-2.8036308 5.388454 -0.19300416
-2.3059227 5.3278284 -0.15440364
-2.0216262 5.277307 -0.16795805
-3.5086524 5.7088795 -0.22003351
-3.2174845 5.7046852 -0.18267693
-2.6871445 5.7208209 -0.14642449
-2.4228969 5.5547919 -0.1790863
-3.8659382 6.1650548 -0.19938147
-3.6635058 6.0548048 -0.1703018
-3.1097925 6.0329375 -0.13438959
-2.9289756 6.0836205 -0.20248209
-2.6355946 5.9282222 -0.21906441
-0.93986994 6.1694436 -0.21810628
-4.2993374 6.6241941 -0.16661839
-3.8727384 6.307703 -0.20226458
-3.5849071 6.3229227 -0.17621756
-3.3946815 6.3856082 -0.19080894
0.020748589 6.5402164 -0.27169031
0.20011407 6.8363724 -0.21174036
-4.3377414 6.683043 -0.1675752
-4.0423594 6.8227983 -0.17931481
-0.21555753 7.0429807 -0.26787943
0.24683696 6.9610968 -0.21487145
-3.3080277 7.3178134 -0.23969589
-2.7503738 7.1862688 -0.16703589
-2.6981726 7.2533002 -0.16812088
-0.55532348 7.5381522 -0.26139647
-0.099972531 7.3457394 -0.2048312
-3.8680849 7.7787213 -0.22630091
-3.1333153 7.8179336 -0.17029677
-2.7484875 7.5602794 -0.17267311
-2.653652 7.5506835 -0.16915701
-0.423758 7.9542842 -0.19754109
-0.32727334 7.9654436 -0.22790851
0.11165899 7.7943215 -0.21449496
-3.7446334 8.0375223 -0.20349208
-3.4898014 8.1386528 -0.18337137
-2.9302018 8.1142597 -0.17446843
-0.89226472 8.2815542 -0.25791889
-0.35287517 8.0380926 -0.19893724
-0.20695236 8.2197628 -0.20201404
-4.601943 8.5849218 -0.21450335
-3.5896747 8.3143463 -0.20901845
-3.3522439 8.396244 -0.1866481
-3.0488396 8.3512869 -0.17790879
-0.78805852 8.6853361 -0.22150145
-0.18955585 8.5455322 -0.20869376
-4.4662037 8.7978287 -0.18661861
-4.3226442 8.9304571 -0.18928152
-0.55795556 9.0083227 -0.19352326
-6.4417067 9.318285 -0.32700044
-6.2763109 9.3291349 -0.32678512
-4.4044261 9.0983973 -0.19169866
-4.2355404 9.2669916 -0.1950485
-0.52253467 9.3952036 -0.20024298
-6.4147387 9.4057579 -0.32926378
-6.0218058 9.662343 -0.27661237
-5.7837863 9.711834 -0.24211915
-5.4508915 9.7816248 -0.27119777
-5.0130286 9.6666498 -0.2021863
-4.7268977 9.6304893 -0.20213442
-4.265027 9.4889565 -0.1985621
-1.0046703 9.8475704 -0.18147622
-5.9456911 9.9103642 -0.24612845
-5.6182628 9.9050493 -0.28134033
-5.0476556 10.014306 -0.20405743
-4.5407724 10.147314 -0.24116516
-4.2248564 10.121444 -0.24137099
-3.9604571 10.252015 -0.30916131
-1.689144 10.311875 -0.24763086
-0.975097 10.069853 -0.19712049
-5.1935525 10.23531 -0.41139367
-4.5541778 10.429759 -0.21745731
-4.1067805 10.57035 -0.22263369
-3.9572525 10.59446 -0.22019404
-0.95699358 10.698257 -0.19389738
-4.0697522 10.673083 -0.2241849
-3.8389492 10.751464 -0.21762615
-1.6899872 11.289544 -0.21363272
-1.3113989 11.388639 -0.20575908
-0.97019243 11.45103 -0.23895693
-0.75574559 11.48214 -0.23849015
-0.22840153 11.464258 -0.26945356
-0.065228134 11.543794 -0.30412129
0.31914797 11.557003 -0.33715162
-0.947685 11.612787 -0.24172778
-0.59884781 11.662587 -0.27532965
-0.13999847 11.711405 -0.30843771
0.25125274 11.798324 -0.34387791
0.43179777 11.669859 -0.33969223
-3.9783254 -28.60857 0.45617789
-3.735517 -28.566269 0.44749793
-3.3122237 -28.581444 0.46207693
-5.7866054 -28.278616 0.38026276
-5.1170964 -28.438841 0.41453305
-4.928071 -28.412203 0.41471562
-4.4554195 -28.384348 0.43816561
-4.0993199 -28.444681 0.44046101
-3.8256025 -28.442669 0.44150025
-3.4569585 -28.304943 0.41720587
-5.683445 -28.225983 0.37970814
-5.1059632 -27.929369 0.42806992
-4.906147 -27.824753 0.4270556
-4.4211755 -28.052534 0.44457629
-4.1327434 -27.935204 0.44369331
-6.3595481 -27.534637 0.36681703
-6.1156836 -27.667706 0.36956128
-5.6970544 -27.663368 0.39971036
-5.1631083 -27.75028 0.42490479
-4.8936129 -27.754068 0.42588982
-4.423912 -27.509607 0.4350214
-4.2467442 -27.756723 0.50831121
-6.3579707 -27.141382 0.36042717
-5.7043462 -27.266918 0.39297709
-5.1801319 -27.36525 0.41821736
-4.2555962 -27.243126 0.49763724
-6.3322721 -27.032419 0.35873619
-5.7105622 -26.879848 0.38652587
-5.3891864 -26.902536 0.40517148
-6.3265734 -26.630617 0.35238421
-3.2283657 -25.487452 0.4817175
-3.2138047 -25.373356 0.47929731
-2.7066977 -23.905998 0.43867803
-2.4927051 -23.725836 0.4445363
-2.6015019 -23.64435 0.43379804
-2.2738492 -23.523142 0.3738291
-2.780689 -23.111504 0.45069775
-2.3133895 -23.027275 0.42232683
-2.0784009 -23.018814 0.36578378
-2.5513868 -22.660028 0.47641197
-2.5388467 -22.549198 0.47383872
-2.4604015 -22.199253 0.46843901
-1.6166648 -22.075998 0.4007791
-2.7924097 -21.823206 0.45615509
-2.2699282 -22.031225 0.46252492
-1.8473468 -21.849834 0.40026107
-1.6007001 -21.859665 0.39636454
-7.6914763 -21.870522 0.39299223
-2.6131673 -21.499249 0.44906047
-2.5435569 -21.489878 0.44913527
-2.042841 -21.570585 0.4195585
-1.7642874 -21.281013 0.43007126
-1.2865443 -21.512232 0.39561114
-2.356349 -21.050518 0.43917918
-1.9314088 -21.059402 0.44335714
-1.510409 -21.022047 0.38476837
-1.3108152 -21.15634 0.38671187
-0.99070662 -21.00975 0.38468552
-6.8846631 -20.827642 0.37396321
-2.2617359 -20.800541 0.43351206
-1.8659202 -20.656429 0.44317344
-1.4264487 -20.770168 0.37992284
-1.349084 -20.59411 0.37667415
-0.91053367 -20.707275 0.37823698
0.5486936 -20.734884 0.31983083
-7.0520558 -20.654066 0.42471761
-6.740252 -20.60886 0.36991003
-6.5132332 -20.348227 0.36523351
-1.94326 -20.34128 0.44218922
-1.4671005 -20.269318 0.39308473
-1.28629 -20.137861 0.40527973
0.46505815 -19.987513 0.28811812
0.79212314 -20.040665 0.3171505
-6.4695535 -20.212137 0.36258781
-1.5540696 -20.020779 0.42912695
-1.2127893 -19.978264 0.40184948
0.46231559 -19.860529 0.28598288
0.84786296 -19.863043 0.31385002
1.0200369 -19.549532 0.30792937
-6.4212217 -19.823214 0.40686455
-6.0214224 -19.663265 0.3526721
-1.560972 -19.60718 0.4242385
-1.1625859 -19.49073 0.37707186
-0.99542886 -19.434 0.38999549
0.47955942 -19.249302 0.26602554
0.69503582 -19.371992 0.27836826
1.1164503 -19.195059 0.28768766
-6.0935545 -19.130297 0.43184289
-5.6928577 -19.238949 0.34496918
-1.1173416 -19.069006 0.40798
-0.85523355 -19.045013 0.38147387
0.79942447 -18.938583 0.27139109
0.91128588 -18.789059 0.2691254
1.3291142 -18.765436 0.27967617
-6.0270362 -18.922581 0.42663324
-5.5358901 -18.928381 0.33909649
-5.3632607 -18.776787 0.33650908
-0.8187772 -18.704275 0.36106583
-0.69033372 -18.444941 0.35587308
0.69931358 -18.602148 0.25637487
0.95985544 -18.576292 0.26569217
1.4299757 -18.532404 0.27532306
-5.7203865 -18.394661 0.38400134
-5.2114778 -18.466522 0.33063093
-5.1191916 -18.360926 0.32875025
-1.5820832 -18.081373 0.42393097
-0.78574413 -18.365475 0.39240757
-0.6890955 -18.413637 0.35517955
0.85583788 -18.172184 0.24999245
1.1087252 -18.131575 0.2585797
1.5208837 -18.208929 0.2693845
1.6696318 -17.94524 0.26440918
2.6623871 -18.096292 0.27715465
3.0757315 -18.071037 0.27955911
-5.5917134 -18.183346 0.37936363
-5.3933272 -17.940512 0.37413666
-4.9139442 -18.06496 0.32332531
-4.7260008 -17.817398 0.31884006
-1.3866462 -17.786873 0.4166114
-0.50814646 -17.884874 0.37339029
-0.24054118 -17.73851 0.36691198
0.76072061 -17.736109 0.27443451
1.1990294 -17.764412 0.25266981
1.2991582 -17.602039 0.250159
1.7607175 -17.710634 0.26008108
2.0768089 -17.535603 0.26549199
-5.2825923 -17.775612 0.37054232
-5.0833039 -17.509142 0.3647798
-4.5403614 -17.564327 0.31423974
-1.2429942 -17.462215 0.42285362
-1.1205019 -17.278418 0.41785803
-0.24857052 -17.287397 0.36869198
0.90740263 -17.324949 0.26789698
1.2646756 -17.302044 0.2615751
1.8352728 -17.347876 0.2534011
2.1001604 -17.192291 0.26329303
-4.8853865 -17.233192 0.35880107
-4.7888861 -17.0984 0.35588256
-4.3569098 -17.051392 0.34774783
-0.99724191 -17.049866 0.41150251
-0.015945297 -17.175985 0.3531644
1.0466453 -16.916628 0.26138324
1.5779227 -16.997536 0.24070518
1.720217 -16.807774 0.23784094
2.2012477 -16.757786 0.2422923
2.7895095 -16.783197 0.23981176
3.0210924 -16.777496 0.255059
-4.844471 -16.867769 0.39410686
-4.5899873 -16.796202 0.34930661
-4.3640203 -16.585047 0.34491274
-0.81782842 -16.691851 0.40172663
-0.70467556 -16.52075 0.39696845
1.0838475 -16.661011 0.25715873
1.2327608 -16.53932 0.25558659
1.7464713 -16.545891 0.23352204
2.2666292 -16.449194 0.23665048
2.4743268 -16.379274 0.24780627
2.8807797 -16.592169 0.25157446
3.3965015 -16.504536 0.23627038
-4.5656834 -16.483742 0.38458446
-4.2550259 -16.381266 0.34042996
-3.8949552 -16.206678 0.35959646
-3.6086931 -16.287588 0.33744559
-2.9523833 -16.272284 0.41825274
-0.58964938 -16.232674 0.38908073
-0.43362761 -16.144142 0.38666457
1.134858 -16.29764 0.27623269
1.3528807 -16.092863 0.24835454
1.8547878 -16.111223 0.22646813
2.0374448 -15.933169 0.22389792
2.5616498 -15.97573 0.22774254
-5.5336304 -15.869298 0.46776441
-4.9248247 -15.877606 0.25248119
-4.6332879 -15.811625 0.27090856
-4.0831933 -16.138081 0.33518085
-3.9195969 -15.913604 0.33035293
-3.6357625 -15.784455 0.34914204
-3.0484169 -15.948037 0.40818915
-0.27458784 -15.814533 0.37756205
1.0617946 -15.610474 0.24931769
1.4738892 -15.745117 0.24288695
1.7931398 -15.725638 0.21383773
2.0985682 -15.627851 0.21889205
2.5669949 -15.691022 0.2225614
-6.1866832 -15.566578 0.41026679
-5.7425709 -15.67777 0.42012468
-5.4972253 -15.608031 0.45959279
-4.8683429 -15.532469 0.22316803
-4.8373847 -15.605533 0.22455923
-4.1480656 -15.491946 0.36802995
-3.7649741 -15.712593 0.32605469
-3.6084747 -15.490808 0.32128325
-3.0702596 -15.537155 0.39577094
-0.72161263 -15.254894 0.39511421
-0.073061511 -15.457314 0.36774924
0.024093905 -15.293765 0.36331448
1.1034838 -15.499423 0.24755888
1.1866134 -15.300933 0.24445717
1.724209 -15.29773 0.2360846
2.2037065 -15.3107 0.21384004
2.7200735 -15.405428 0.21720316
2.8268137 -15.170359 0.21283069
-7.061326 -15.125704 0.33037236
-6.7775402 -15.262176 0.35225424
-6.3340578 -15.237972 0.35986173
-5.7138624 -15.30118 0.40937355
-5.5313344 -15.24607 0.44844249
-5.0909843 -15.151967 0.4527376
-4.8519769 -15.146584 0.21648256
-4.3505678 -15.136691 0.28566471
-3.9148579 -15.19591 0.36065605
-3.4434733 -15.21742 0.31533718
-3.2648365 -15.090012 0.31283614
-0.66075432 -14.980419 0.38706678
0.16621239 -15.029278 0.35602269
1.3434047 -14.878795 0.23777105
1.8334376 -14.991032 0.23120828
2.2885208 -14.899168 0.20711064
2.3809533 -14.879391 0.20696427
2.961622 -14.851445 0.20688805
-7.5724149 -14.784902 0.25057223
-6.98803 -14.967929 0.30366629
-6.7449064 -14.811865 0.34087011
-6.3157449 -14.798659 0.3486239
-5.717289 -14.880743 0.39740822
-5.6811547 -14.786954 0.39471409
-5.1210036 -14.778295 0.44101888
-4.7637768 -14.794522 0.44114339
-4.344502 -14.768935 0.27739549
-3.7279365 -14.646946 0.38396475
-3.5461259 -14.723509 0.348919
-3.1836216 -14.690693 0.34051821
-2.7873814 -14.591177 0.33955199
-0.32048526 -14.565599 0.37573639
1.4558324 -14.578363 0.23302089
1.4921824 -14.479083 0.23144819
2.0039542 -14.485255 0.22317691
2.4336548 -14.616063 0.20268033
-7.5249562 -14.467289 0.24432392
-6.9155436 -14.573102 0.2947689
-6.8760595 -14.490052 0.2929166
-6.2986746 -14.505399 0.34113124
-5.7384396 -14.525061 0.38731846
-5.6750579 -14.498249 0.38650328
-5.1384869 -14.38882 0.42881224
-4.6415229 -14.572957 0.43404418
-4.4118581 -14.333515 0.26743022
-4.1157799 -14.331928 0.26911274
-3.3978045 -14.510046 0.34359694
-3.2011652 -14.278522 0.33790159
-2.8074527 -14.395599 0.33242717
-0.13298836 -14.207222 0.36559662
0.0011355653 -14.151471 0.36437634
1.4185848 -14.132056 0.27606198
1.6351886 -14.113812 0.22571029
2.1291583 -14.078878 0.21667118
2.4111938 -14.004211 0.18803509
2.746213 -14.068878 0.2203701
-7.4906383 -14.182689 0.23871355
-7.2718825 -14.093773 0.2765182
-6.8529587 -14.096456 0.28401813
-6.3023081 -14.028094 0.32896158
-5.7438078 -14.146764 0.37659332
-5.7049737 -14.05137 0.37385121
-5.1091595 -14.028019 0.41745621
-4.5611324 -13.957343 0.45750991
-4.5128307 -13.958412 0.45745721
-3.832196 -14.117693 0.28607419
-3.3707323 -13.991721 0.36796311
-3.0011611 -14.007331 0.33118823
-2.8160753 -13.779878 0.32560691
0.088737905 -13.805626 0.35429394
0.25990644 -13.660674 0.35053906
1.4462577 -13.713966 0.26034543
1.7087996 -13.731613 0.24999659
2.2317712 -13.869438 0.21343613
2.4076128 -13.593973 0.20936736
2.7370176 -13.581418 0.22483678
-7.4725342 -13.727243 0.22967939
-7.2378387 -13.710118 0.26799721
-6.8345671 -13.620108 0.27326033
-6.2637439 -13.711063 0.32087964
-6.0772066 -13.646047 0.35643968
-5.6621256 -13.698376 0.3638095
-5.3119559 -13.756509 0.18463828
-4.820785 -13.638508 0.44444379
-4.2723956 -13.647028 0.43460193
-3.0703726 -13.593905 0.37665403
-2.6910527 -13.606103 0.32131636
-2.4742441 -13.396848 0.31631413
0.38200065 -13.395957 0.34298328
1.7996676 -13.423141 0.2441562
2.0018821 -13.234921 0.21204425
2.3966165 -13.28483 0.20405121
2.8420997 -13.238019 0.21754991
-7.4289379 -13.445046 0.22414424
-7.3455596 -13.294358 0.22129165
-6.8269935 -13.290588 0.26582876
-6.2486277 -13.343461 0.31153101
-6.0433917 -13.344738 0.34795988
-3.4943438 -13.007936 0.27864382
-2.9936566 -13.304378 0.35261133
-2.9499648 -13.283047 0.35209426
-2.3873506 -13.160643 0.31030819
2.1854928 -12.852051 0.17255594
2.3233268 -12.76012 0.18460801
2.8631337 -12.716506 0.21676867
-7.2849107 -12.895577 0.21347453
-6.7907801 -13.017969 0.25970349
-4.296351 -12.60651 0.18739921
-3.7943802 -12.766596 0.23259471
-3.5509052 -12.745892 0.44725537
-3.2183814 -12.629973 0.41004106
-2.7735565 -12.58204 0.40217254
-2.4989374 -12.506226 0.36623412
-2.1781604 -12.509884 0.30744067
-0.63249135 -12.443059 0.22311802
-0.59210575 -12.421386 0.22284226
2.162956 -12.478216 0.16621166
2.5118589 -12.349738 0.19904515
2.6572368 -12.462531 0.20176601
3.0109925 -12.367762 0.22776012
4.1254063 -12.212175 0.16983806
-10.703712 -12.746545 0.29072085
-5.5351176 -12.239757 0.29146901
-5.1744576 -12.30191 0.32376054
-4.8069777 -12.34061 0.1622334
-4.449873 -12.40377 0.17003582
-4.1220942 -12.355639 0.40175
-3.6138513 -12.230426 0.3965998
-3.2881596 -12.257838 0.39719608
-2.734308 -12.237136 0.35955116
-2.3793967 -12.275498 0.3610976
-1.96067 -12.265959 0.3241697
-1.5720576 -12.13163 0.28538185
-1.2155957 -12.205986 0.25173673
-0.77467877 -12.211792 0.21776231
-0.50298053 -12.175935 0.21816649
0.14220174 -12.027804 0.15383291
0.41034219 -11.98199 0.17462146
0.78928196 -12.062362 0.18555963
1.1650021 -11.991394 0.18609324
1.5988759 -12.091974 0.18996266
1.9123152 -12.107877 0.19178545
2.3594737 -11.981008 0.19179709
2.6198387 -11.911654 0.19190606
2.9886022 -12.107789 0.2221465
4.0923681 -12.113594 0.16796708
4.2909961 -12.073344 0.16721882
-11.165297 -12.196845 0.43973026
-10.784783 -12.160301 0.43512061
-6.2109904 -11.908364 0.23498787
-5.69595 -11.981429 0.29039958
-5.1038046 -11.924012 0.3129994
-4.7202797 -12.015232 0.35386255
-4.5205293 -12.062106 0.35496452
-4.011538 -12.152648 0.39457551
-3.5756414 -11.947357 0.16523503
-3.1897759 -11.9299 0.27647701
-2.8068352 -11.934961 0.31311485
-2.4182138 -11.963208 0.31446937
-2.0031188 -11.907505 0.27827516
-1.6908308 -11.771468 0.31032643
-1.2617 -11.775701 0.27694729
-0.83561736 -11.779626 0.24315368
-0.4116998 -11.788404 0.21057664
-0.17665772 -11.611304 0.25479394
0.40692356 -11.874443 0.17276834
0.70575845 -11.934372 0.18291396
1.1584467 -11.922032 0.18484098
1.4161079 -11.851581 0.18484335
2.1358867 -11.821716 0.18787153
2.2601268 -11.868461 0.18931806
2.6258223 -11.586338 0.18622831
2.9739244 -11.446646 0.17466909
3.3835738 -11.478985 0.18729267
4.2582374 -11.456778 0.19155128
-11.971766 -11.778008 0.38608721
-11.595674 -11.864172 0.42388526
-11.236755 -11.968534 0.43359074
-10.827333 -12.054417 0.43232229
-7.8449602 -11.833263 0.11768121
-6.3428602 -11.664079 0.42650449
-6.1666303 -11.823466 0.23309682
-5.6086984 -11.597445 0.26691553
-5.2641087 -11.638605 0.34346077
-4.8492761 -11.586642 0.34080386
-4.3399296 -11.648986 0.37812907
-4.1444392 -11.573641 0.19346316
-3.7307587 -11.62932 0.23141564
-3.3827937 -11.728163 0.19867648
-2.9292221 -11.660605 0.19865714
-2.4027207 -11.543647 0.37213016
-2.0010638 -11.490687 0.33638975
-1.6223693 -11.55668 0.3042064
-1.3786278 -11.383418 0.29976377
-0.92827433 -11.373008 0.26742887
-0.51981324 -11.409219 0.23571046
-0.073551148 -11.380997 0.20366843
0.14838415 -11.252566 0.24484886
1.7352675 -11.160671 0.20806207
1.8032763 -11.135226 0.20790823
2.4351749 -11.236244 0.16911714
2.7426825 -11.27188 0.18131606
3.1841762 -11.223142 0.18277489
3.5380106 -11.247799 0.18509193
3.9022059 -11.184751 0.2177033
4.1660089 -11.223681 0.23798533
-12.029403 -11.438458 0.42592332
-11.576936 -11.551082 0.41439095
-11.26791 -11.59324 0.34246683
-6.3418856 -11.237082 0.41140011
-6.0623412 -11.275326 0.2208101
-5.6730242 -11.238903 0.29473576
-5.2493868 -11.227664 0.33076707
-4.7958097 -11.220901 0.36506161
-4.6520247 -11.184449 0.39348298
-4.23067 -11.247109 0.41526031
-3.6622829 -11.292661 0.42692056
-3.1017833 -11.295123 0.42102048
-2.7090569 -11.167329 0.40223911
-2.3936453 -11.080532 0.39842674
-2.0219843 -11.117434 0.35745001
-1.6513376 -11.142871 0.32578704
-1.1960503 -11.047621 0.29043362
-0.83654308 -11.120549 0.26107612
-0.36312851 -11.052175 0.22796862
-0.15219562 -10.943483 0.22631927
0.24001123 -10.902682 0.19524269
0.6196686 -10.800301 0.23235606
1.6539607 -10.856951 0.20138685
1.8059093 -10.929437 0.20369856
2.5243881 -11.007963 0.20546512
2.8534248 -10.827005 0.17409502
3.017493 -10.758932 0.17376561
3.5693686 -10.703573 0.16400044
4.0681772 -10.780771 0.20927097
4.1561499 -10.81258 0.20990549
4.6061053 -10.575656 0.23694591
-12.420489 -11.133245 0.40983817
-12.123091 -11.098831 0.41712579
-11.811606 -11.108661 0.45098081
-11.464832 -11.240561 0.29233992
-8.7766256 -11.009531 0.2157924
-8.0917521 -10.770684 0.23834036
-6.7593179 -10.755135 0.39768127
-6.5086851 -10.804858 0.39745274
-6.1003914 -10.849499 0.21124683
-5.6707969 -10.808208 0.28276166
-5.2348442 -10.838921 0.31879088
-4.8479452 -10.775153 0.35028604
-4.6502814 -10.797096 0.37947425
-4.2681856 -10.92826 0.40265727
-3.5873508 -10.787482 0.43880934
-3.3937132 -10.653496 0.43175468
-2.6849887 -10.874491 0.4046295
-2.307873 -10.847558 0.3892732
-1.9384079 -10.839837 0.37443218
-1.625123 -10.649638 0.34149379
-1.3080471 -10.685825 0.31177911
-0.85112548 -10.698544 0.28126362
-0.42533201 -10.555154 0.24767317
-0.01288921 -10.603271 0.21893664
0.21810351 -10.438472 0.21612035
0.56663585 -10.559286 0.18971379
0.92895019 -10.427163 0.22222246
1.5322008 -10.493855 0.19327614
2.0566406 -10.582615 0.22962435
2.3700044 -10.455924 0.24768053
2.7879736 -10.47143 0.19490357
3.0635564 -10.472199 0.19042759
3.6236234 -10.374276 0.15865621
4.0171361 -10.346768 0.19935402
4.1159616 -10.409296 0.20074262
4.5804791 -10.338161 0.23041625
-12.904093 -10.601502 0.33339682
-12.429665 -10.794155 0.4000912
-12.047538 -10.685644 0.40452349
-11.794176 -10.748211 0.43949428
-8.0602274 -10.590071 0.233036
-6.8883228 -10.506478 0.16688032
-6.5468416 -10.453915 0.20240633
-6.0977998 -10.425876 0.23797081
-5.7096977 -10.477913 0.27371106
-5.2449479 -10.437124 0.30653539
-4.8349681 -10.394742 0.33750749
-4.5878172 -10.212092 0.36397576
-4.1932507 -10.226834 0.16919743
-3.880399 -10.548985 0.43003792
-3.1372697 -10.416012 0.41980281
-2.8877218 -10.289233 0.41290504
-2.4799261 -10.379036 0.383791
-1.9033136 -10.439316 0.37825838
-1.5509562 -10.365759 0.35672876
-1.3369358 -10.284499 0.32913378
-0.8968339 -10.28035 0.29976651
-0.45534804 -10.207051 0.26823506
-0.1197039 -10.149234 0.23819651
0.34136555 -10.163417 0.21023671
0.7104522 -10.211134 0.18324494
0.94844884 -9.9809647 0.17969353
1.5626462 -10.028517 0.18388303
1.9530925 -10.027518 0.18601392
2.0870211 -9.9506292 0.20556025
2.85114 -10.186909 0.18890895
3.2068169 -10.071175 0.16274036
3.3441329 -10.06264 0.16333179
3.7654717 -9.9659977 0.15219076
4.1582346 -10.161342 0.20844281
4.5539484 -10.104884 0.22391073
-13.245506 -10.216349 0.27760574
-12.728765 -10.359624 0.31337461
-12.369419 -10.339519 0.38645896
-12.055194 -10.357717 0.39532843
-11.880973 -10.335204 0.35703674
-7.5545349 -9.9562197 0.21622989
-7.4848027 -9.9942036 0.21724756
-6.9261065 -10.0724 0.15832068
-6.5419636 -10.089291 0.19433145
-6.0766754 -10.024146 0.22795765
-5.6957231 -9.997961 0.26044601
-5.2930422 -9.978281 0.29274273
-4.9053025 -9.9653807 0.32351527
-4.5407038 -9.9068346 0.38441861
-4.1100488 -9.8920012 0.35002169
-3.9088576 -9.754056 0.34409463
-3.1899624 -9.9720707 0.41322187
-2.9902256 -9.8824625 0.40855968
-2.4914231 -9.9598417 0.39627579
-2.1901402 -9.8006725 0.38788292
-1.544008 -10.022377 0.35611299
-1.2400713 -10.009653 0.34356478
-0.90482771 -9.8811846 0.31589451
-0.5131321 -9.820569 0.28613457
-0.12667246 -9.7936096 0.25740942
0.25532371 -9.7609739 0.22962134
0.66617715 -9.7274961 0.20159478
1.0775719 -9.7045641 0.17466642
1.6036613 -9.6820087 0.17699224
1.9493371 -9.839694 0.18214349
2.2945232 -9.7044964 0.2105123
2.4772737 -9.4674377 0.2143614
3.2629533 -9.7120571 0.15676731
3.3535285 -9.4387722 0.17118263
3.8495731 -9.6959906 0.15356199
4.0733199 -9.4852047 0.17119202
-13.233902 -10.141374 0.27540258
-13.118608 -10.053473 0.27248523
-12.355664 -10.131622 0.38034219
-12.27061 -10.132575 0.3240687
-7.6493998 -9.8221178 0.21261711
-7.4984236 -9.8828049 0.21418522
-6.9096761 -9.7169695 0.15139273
-6.5854926 -9.6488657 0.35809997
-6.1076493 -9.6584864 0.21896195
-5.68011 -9.6152773 0.2499022
-5.3230143 -9.6639528 0.28334135
-4.8877201 -9.622016 0.3120518
-4.5647659 -9.6058044 0.40502679
-4.1430936 -9.5944557 0.36977601
-3.7132444 -9.6163807 0.33824047
-3.4019392 -9.4257326 0.33005723
-2.5606582 -9.5423813 0.39172497
-2.1555221 -9.6487312 0.38091639
-1.7695333 -9.450881 0.37068209
-1.1878684 -9.6202049 0.35183868
-0.7535342 -9.5092411 0.32537892
-0.47220331 -9.404027 0.30036891
