# .PCD v0.7 - Point Cloud Data file format
VERSION 0.7
FIELDS x y z
SIZE 4 4 4
TYPE F F F
COUNT 1 1 1
WIDTH 1420
HEIGHT 1
VIEWPOINT 0 0 0 1 0 0 0
POINTS 1420
DATA ascii
-4.9494915 -7.736526 -0.17802265
-4.8211379 -7.7747812 -0.31251135
-4.3710442 -7.7183328 -0.3543396
-3.9662352 -7.7071328 -0.39606211
-3.59496 -7.6290345 -0.33348835
-3.220577 -7.5288906 -0.29737431
-2.7043467 -7.5590096 -0.23978864
-2.3314779 -7.4810748 -0.30224472
-1.8302271 -7.5264039 -0.29423967
-1.6269221 -7.4395199 -0.31046954
-1.1183487 -7.2097645 -0.40385348
-0.67510509 -7.3008666 -0.35650587
-0.3074339 -7.1988215 -0.32446972
-0.1023107 -7.3253403 -0.30872524
0.55026531 -7.275785 -0.4059664
0.87540692 -7.1942358 -0.35529691
1.2395828 -7.2365432 -0.3547737
1.4689062 -7.2061267 -0.34878701
2.1728797 -7.1811595 -0.37172508
2.430074 -7.0667753 -0.34347245
2.7498279 -6.9826407 -0.31728387
3.2622364 -6.9489765 -0.15324022
3.534579 -6.9586649 -0.13753344
3.8322904 -6.8149061 -0.14705947
-6.1862292 -7.4950333 -0.22865233
-5.967495 -7.4648643 -0.21834557
-5.5381336 -7.4632173 -0.18365389
-5.1152239 -7.4107847 -0.28360951
-4.8285789 -7.4014473 -0.30381548
-4.4255319 -7.3043547 -0.34356761
-3.9958663 -7.2968822 -0.33288267
-3.6162636 -7.2086358 -0.29698345
-3.1880803 -7.1778293 -0.28697246
-2.8528607 -7.3227606 -0.26076445
-2.3428178 -7.1698775 -0.29273909
-2.0548747 -6.9859314 -0.25925618
-1.5196464 -7.056303 -0.31722385
-1.0858209 -6.8927751 -0.36635566
-0.78574222 -6.9525452 -0.34296355
-0.47898072 -6.9010425 -0.31468493
-0.077273242 -6.7477722 -0.2828618
0.48035806 -6.7461314 -0.25562856
0.70388395 -6.830615 -0.31901097
1.1527061 -6.774292 -0.33388546
1.5269752 -6.5660505 -0.26625416
1.8296032 -6.541111 -0.25741088
2.2206583 -6.4365063 -0.24234021
3.4112179 -6.6623144 -0.27614048
4.0259819 -6.5554433 -0.088470913
-6.2679391 -6.9516749 -0.24564658
-5.9398866 -6.999032 -0.21173097
-5.6217089 -7.0868411 -0.18077046
-5.0014963 -7.1327586 -0.17210616
-4.8524046 -7.0787134 -0.29675898
-4.4544902 -6.9347 -0.3335982
-3.9756219 -6.7685928 -0.31684762
-3.5308247 -6.8765283 -0.30941129
-3.2429399 -6.8086791 -0.27796429
-2.7548585 -6.7502003 -0.22251673
-2.2964928 -6.8536539 -0.28195176
-2.0030704 -6.6869969 -0.29170525
-1.7213004 -6.6952128 -0.30753577
-1.3307793 -6.4256477 -0.37295103
-0.99269682 -6.4497337 -0.30767494
-0.35153279 -6.3027458 -0.27248827
-0.038066775 -6.4983425 -0.27285933
0.29821748 -6.4742451 -0.34664693
0.73706329 -6.4144416 -0.30052561
1.1437204 -6.370656 -0.27565011
1.4791741 -6.1506014 -0.24592467
1.8476307 -6.0848522 -0.31927142
2.2403214 -6.1952982 -0.29106352
-5.8823113 -6.7925682 -0.20805064
-5.6042738 -6.6978779 -0.17627141
-5.0714517 -6.6090837 -0.16762774
-4.9878259 -6.5933309 -0.16597177
-4.4758015 -6.5347247 -0.32270268
-3.9639482 -6.4493356 -0.30725121
-3.5637321 -6.5615997 -0.30081162
-3.2649262 -6.5153608 -0.27041209
-2.7988348 -6.3643341 -0.21472044
-2.4853647 -6.1544933 -0.20427383
-2.0597727 -6.2435708 -0.39634404
-1.7310565 -6.1847186 -0.28868327
-1.2713175 -6.1921334 -0.3564685
-0.73139036 -6.1190786 -0.30550465
-0.45653903 -5.9978523 -0.27734113
-0.19453821 -6.0248952 -0.25974247
0.41522777 -5.8439984 -0.33175766
0.84260523 -5.9940195 -0.3364614
0.9951424 -5.8680468 -0.32111394
1.5112586 -5.8808613 -0.23573823
1.8730245 -5.8375998 -0.30743179
2.3031459 -5.7748041 -0.26711863
2.7209713 -5.773088 -0.13111545
2.9371989 -5.6586528 -0.12086365
3.3312621 -5.5282936 -0.20010674
-6.2042851 -6.1728125 -0.25421822
-5.6760836 -6.3980575 -0.18013985
-5.1032972 -6.1837988 -0.16557173
-4.857502 -6.2594304 -0.27791125
-4.5092287 -6.1422596 -0.31250283
-4.0791101 -6.1086316 -0.32194507
-3.6261439 -5.9517941 -0.28440088
-3.3534718 -5.9085922 -0.27647582
-2.8554204 -5.9658113 -0.22685665
-2.4270589 -5.9375272 -0.19835457
-2.0472579 -5.901401 -0.24729066
-1.7242906 -5.8345175 -0.2755186
-1.3182657 -5.8182249 -0.30296957
-0.95825082 -5.7295861 -0.29231891
-0.60803676 -5.6958094 -0.26725894
-0.26415822 -5.6276903 -0.2649506
0.31291988 -5.5232482 -0.31579399
0.67052585 -5.6191311 -0.31793228
1.5367293 -5.4844818 -0.2209591
1.8680232 -5.469707 -0.28990126
2.2805405 -5.4194837 -0.25245786
2.5701814 -5.3782811 -0.23275901
2.8814549 -5.277091 -0.11270563
3.3752913 -5.321434 -0.081133671
-5.4007955 -5.776978 -0.18664956
-4.8227105 -5.6992512 -0.13163258
-4.5295644 -5.764214 -0.30253941
-4.1942544 -5.6236625 -0.31024152
-3.7870603 -5.7241011 -0.30206642
-3.3067453 -5.6855578 -0.26878291
-2.9373379 -5.5750914 -0.23763618
-2.5591657 -5.515204 -0.19139408
-2.0175478 -5.4566956 -0.25016037
-1.8451753 -5.4268627 -0.26298097
-1.3694804 -5.3852859 -0.26816916
-1.0205274 -5.333107 -0.29250744
-0.55477369 -5.2309351 -0.24740671
0.18336344 -5.1764903 -0.29878005
1.5520229 -5.1099057 -0.20711504
1.8282061 -5.0726676 -0.18812989
2.251246 -5.0366464 -0.23674908
2.6160223 -4.967391 -0.11429158
2.8321347 -4.945066 -0.10956817
3.3075829 -4.866323 -0.077688538
-5.6963453 -5.597321 -0.21284221
-5.3683596 -5.4140296 -0.18140376
-5.0527601 -5.4043779 -0.15400614
-4.5529919 -5.3480992 -0.29181874
-4.1899204 -5.318408 -0.30091664
-3.8082659 -5.2503009 -0.28802058
-3.3413155 -5.2895169 -0.25808001
-3.0266159 -5.1513739 -0.29955181
-2.5684879 -5.0297775 -0.18087019
-2.2043922 -5.0668564 -0.24121055
-1.9054151 -5.0312104 -0.24978501
-1.4114256 -4.9752264 -0.29977208
-0.97526461 -4.9425569 -0.27348721
-0.6662156 -4.9784827 -0.23885036
0.14784992 -4.8630142 -0.28260189
1.7401717 -4.6592846 -0.26650995
2.1070333 -4.629014 -0.23543967
2.4848499 -4.5851378 -0.2029766
2.7702427 -4.4819655 -0.10018406
3.2496724 -4.6217575 -0.076003835
-5.702188 -5.0895562 -0.16047181
-5.4266324 -5.033505 -0.17754027
-4.9122777 -4.8647351 -0.2483018
-4.5530663 -5.0061393 -0.28265652
-4.2842083 -4.9055219 -0.31104034
-3.8265083 -4.9186192 -0.22300036
-3.4078636 -4.8111358 -0.24606381
-3.0760064 -4.8028531 -0.30549723
-2.6897151 -4.7925582 -0.17806241
-2.1346059 -4.797029 -0.23064211
-1.9192553 -4.7151518 -0.23857747
-1.4118574 -4.5874772 -0.28091526
-1.031873 -4.5499287 -0.227854
-0.79599589 -4.7203412 -0.23049484
1.7491767 -4.2290878 -0.24523993
2.1133654 -4.2069983 -0.21732245
2.4600184 -4.1794958 -0.18802448
2.7630682 -4.1181803 -0.096436329
3.1346662 -4.0602698 -0.072080731
-5.6999025 -4.7662563 -0.15702572
-5.4798865 -4.5889835 -0.13072699
-4.9188437 -4.6946344 -0.25009441
-4.704145 -4.5073943 -0.25455368
-4.3009534 -4.4331989 -0.29694408
-3.9836438 -4.4651585 -0.2696768
-3.5237856 -4.3245821 -0.2519618
-3.0854313 -4.3640471 -0.30466485
-2.8231659 -4.3468752 -0.32615966
-2.1980083 -4.3435187 -0.23196785
-1.9656088 -4.3906474 -0.22792579
-1.5511186 -4.37816 -0.28810167
-1.1617415 -4.1160622 -0.21292382
1.7122195 -3.8467002 -0.16112487
2.1235714 -3.8194299 -0.20098458
2.436034 -3.7936208 -0.1740092
2.7179496 -3.7285664 -0.090462588
3.0950727 -3.8280773 -0.070501246
-5.7236137 -4.1990891 -0.17874239
-5.5083632 -4.1789246 -0.12759215
-5.1283178 -4.2610469 -0.20773436
-4.7076812 -4.2260814 -0.24814855
-4.3041668 -4.1016016 -0.28706419
-3.8551147 -4.0443397 -0.27044153
-3.57411 -4.0506215 -0.24536304
-3.1188052 -3.9848542 -0.30572101
-2.8271558 -3.9750304 -0.15199824
-2.1699753 -3.8034749 -0.20165551
-2.1074529 -3.7760279 -0.20962685
-1.7107902 -3.804564 -0.26361403
-1.1362597 -3.7565477 -0.21014373
-0.92777199 -3.7302365 -0.2300916
1.7139497 -3.4279339 -0.14643146
2.0352492 -3.4148462 -0.19603764
2.4135482 -3.3823376 -0.15936853
2.6317906 -3.1747754 -0.080048211
-5.7925987 -3.9639325 -0.20107876
-5.5225115 -3.8909578 -0.12531491
-4.9880962 -3.6191509 -0.20650531
-4.5640631 -3.7625906 -0.25127998
-4.3772068 -3.7362032 -0.27890572
-4.0812659 -3.6078534 -0.23277345
-3.5176122 -3.6567783 -0.26231232
-3.2126899 -3.6315413 -0.28011739
-2.7179468 -3.5449052 -0.15213811
-2.3618515 -3.4763896 -0.20625032
-2.1067946 -3.3745377 -0.19566047
-1.4298313 -3.3242092 -0.18748869
-1.2137818 -3.3699169 -0.20620437
1.8091526 -3.1399622 -0.13665344
2.0138881 -3.0310218 -0.17919564
2.3857751 -2.9760907 -0.1452295
2.6354468 -3.0351481 -0.077913851
-6.2568717 -3.6423216 -0.21786766
-6.1576538 -3.4249623 -0.21237077
-5.557445 -3.4564264 -0.122058
-5.0513802 -3.4026668 -0.20430489
-4.8043294 -3.2992151 -0.21357821
-4.4006939 -3.3254538 -0.25180632
-4.0063386 -3.3050275 -0.25368312
-3.5429873 -3.2294364 -0.24943402
-3.2682521 -3.1859968 -0.19793056
-2.7814848 -3.2778847 -0.14804876
-2.3308797 -3.1604593 -0.19475588
-2.0197065 -3.049665 -0.22609837
-1.6394708 -2.9765699 -0.17946617
-1.3089042 -2.9711509 -0.20060916
2.0336614 -2.6060219 -0.16158436
2.3618567 -2.5749726 -0.13173375
2.6235504 -2.7165189 -0.075491987
-6.0688 -3.0661438 -0.18498896
-5.7129149 -2.9990852 -0.15794715
-5.0792851 -3.1236532 -0.20027025
-4.8460469 -2.9549708 -0.20827641
-4.4333124 -2.9230194 -0.24295594
-4.0766172 -2.8457487 -0.24359185
-3.6546204 -2.8292618 -0.24130845
-3.304399 -2.8138912 -0.25361159
-2.8502119 -2.770035 -0.13950968
-2.3462448 -2.7836118 -0.18286024
-2.0470605 -2.670203 -0.21048133
-1.6702671 -2.6190374 -0.18578316
-1.3569684 -2.6315277 -0.18601482
1.9746747 -2.2171068 -0.154448
2.3379617 -2.1834519 -0.11909916
2.5342071 -2.1662149 -0.065524146
-6.0145788 -2.709322 -0.17935643
-5.6825609 -2.747108 -0.13608108
-5.4326558 -2.7730801 -0.12848185
-4.7987261 -2.656863 -0.20156963
-4.4579687 -2.5204146 -0.21960272
-4.1277051 -2.4198492 -0.20655677
-3.6672854 -2.4250734 -0.23017959
-3.2827311 -2.4412172 -0.24001776
-3.0077631 -2.4957809 -0.14958677
1.968266 -1.7767161 -0.13666545
2.2569969 -1.7555078 -0.11465448
2.4851322 -1.9039863 -0.062018476
-5.9101062 -2.4454074 -0.19278796
-5.8493781 -2.3533933 -0.19010721
-5.4022875 -2.1501908 -0.10858934
-4.7229013 -2.2947099 -0.21577866
-4.4817076 -2.1601963 -0.22740136
-4.1696639 -2.0353138 -0.20000716
-3.7373796 -2.0649257 -0.22334225
-3.3116286 -1.983987 -0.15895592
-3.153641 -1.8112613 -0.1294892
-2.7045271 -1.7943023 -0.18295036
-1.9872434 -1.7720571 -0.18387458
-1.7283645 -1.8209078 -0.16285357
1.9898763 -1.4752134 -0.12595372
2.2063324 -1.3867115 -0.10301932
2.4986398 -1.5103952 -0.059768654
-5.8346648 -1.7028409 -0.16357471
-5.4801617 -1.9338719 -0.10895338
-4.7877808 -1.6990216 -0.18545766
-4.572042 -1.6346792 -0.19212405
-4.1824698 -1.6585793 -0.21939658
-3.7607529 -1.6465085 -0.21409266
-3.3818326 -1.5541868 -0.23940752
-3.0575192 -1.6168511 -0.18420051
-1.8041525 -1.6076081 -0.15241201
1.9799573 -0.96416974 -0.10907999
2.2036407 -0.9566555 -0.10719881
2.4292548 -0.95010948 -0.053779326
-5.783874 -1.5106962 -0.17159431
-5.2582607 -1.5525913 -0.18385775
-4.8916888 -1.1524078 -0.16127944
-4.630146 -1.3536025 -0.18958463
-4.1997161 -1.2955538 -0.21296005
-3.7704117 -1.2422309 -0.20572321
-3.4005039 -1.1986811 -0.19945003
-3.1239426 -1.2343988 -0.17779885
-2.8222396 -1.0937464 -0.11533827
2.1229093 -0.64374018 -0.07601738
2.3505569 -0.64312482 -0.033869162
-5.5124354 -0.81734484 -0.16892466
-4.8880992 -1.0877793 -0.1605766
-4.6138601 -0.91614294 -0.16932121
-4.2977867 -0.84164321 -0.19652584
-3.8436136 -0.81784588 -0.1785263
-3.4530606 -0.75199437 -0.2131574
-3.0861862 -0.74060822 -0.11175706
-2.8389199 -0.92388487 -0.12251038
2.4055424 -0.35250342 -0.1020413
-5.7158051 -0.46416622 -0.10749768
-5.3799129 -0.53931606 -0.12598197
-5.217484 -0.51742691 -0.12269878
-4.5820012 -0.6320076 -0.16489182
-4.2780566 -0.50743759 -0.1789366
-3.9495075 -0.43876284 -0.18884571
-3.4777157 -0.39628327 -0.20824061
-3.1129658 -0.35437191 -0.10786512
-2.8642941 -0.5141685 -0.12042401
-5.8096347 -0.18402274 -0.10843584
-5.3605213 -0.36141038 -0.13933614
-5.1316223 -0.15519495 -0.14731766
-4.5858531 -0.15964399 -0.14673565
-4.3864493 -0.075046778 -0.16543597
-3.9647908 -0.016804963 -0.18462263
-3.5925708 0.013692245 -0.17845653
-3.2051823 0.063623644 -0.19653031
-5.7817545 0.12543198 -0.11107791
-5.513134 0.20514423 -0.12190615
-5.3024502 0.31690961 -0.11696292
-4.6055532 0.24027786 -0.14330485
-4.4114561 0.25019756 -0.15088417
-4.015739 0.36681879 -0.16069573
-3.5860629 0.39222938 -0.17507374
-3.1785576 0.43637317 -0.19228879
-3.0029871 0.5934419 -0.18175283
2.0344851 1.1999255 -0.043925248
2.2068384 1.0185654 -0.012186857
-5.8608427 0.41886705 -0.093010508
-5.6254025 0.5053314 -0.1053697
-5.2145209 0.61772227 -0.11284206
-4.8002453 0.65715712 -0.13233663
-4.4174352 0.65974414 -0.1353267
-3.9401352 0.77262402 -0.15548882
-3.648061 0.79638296 -0.1657391
-3.2775526 0.71921206 -0.18790324
-2.9307358 0.84870118 -0.059386678
2.020365 1.4436663 -0.085499473
2.2407663 1.4681112 -0.098807521
-5.9223428 0.83588117 -0.099730872
-5.671298 0.8296628 -0.08703731
-5.197855 0.95432979 -0.10991085
-4.8011489 1.0816182 -0.11535588
-4.4776621 1.126016 -0.12125406
-4.140173 1.0929402 -0.12507676
-3.668556 1.215445 -0.1224959
-3.2458472 1.1745993 -0.10994007
-2.9325874 1.3539027 -0.082435645
1.6550703 1.9560469 0.011699015
1.8946109 1.8208752 -0.073028423
2.3130453 1.7983885 -0.061843552
-5.6062961 1.5351342 -0.083294198
-5.473732 1.5547487 -0.081526116
-5.0962462 1.5999596 -0.1113098
-4.5410762 1.4190978 -0.12117931
-4.0945306 1.3696793 -0.13478278
-3.7500861 1.5899172 -0.13528766
-3.3484428 1.5995454 -0.14307222
-2.9638095 1.619029 -0.13835122
1.1936638 2.2771237 -0.044183679
1.5462828 2.2132273 -0.098694034
1.8278129 2.255621 -0.10435373
2.1935997 2.2550857 -0.11122295
-5.5916123 1.6411719 -0.082559019
-5.3458276 1.7121249 -0.075286999
-4.9843698 1.8667521 -0.084354676
-4.489718 1.9612989 -0.10343183
-4.1838298 1.9338191 -0.11022118
-3.9039576 1.8251438 -0.1039279
-3.4465501 1.9005343 -0.18282464
-3.1143374 1.8744609 -0.14420627
0.78125012 2.5853236 -0.094538353
0.99922913 2.5117319 -0.085831679
1.3610005 2.5196393 -0.063434072
1.8829434 2.548492 -0.075391777
2.0455484 2.4554608 -0.13634793
-6.1022687 2.2775283 -0.10510891
-5.6580896 2.0329428 -0.078404628
-5.5644746 2.0377235 -0.082347549
-4.9458785 2.4400585 -0.17915769
-4.5114141 2.4304304 -0.184256
-4.2126288 2.2115352 -0.10995505
-1.7521255 2.7221091 -0.19207077
0.76324344 2.7071836 -0.10994925
0.99212247 3.0499167 -0.10017417
1.2165163 2.9275982 -0.11564416
1.6217461 3.0896311 -0.013065821
-6.2017522 2.4724185 -0.13110441
-5.7449851 2.4981582 -0.13837297
-5.5804939 2.5713241 -0.13650018
-5.1355519 2.5543749 -0.14676808
-4.5404158 2.6759279 -0.16803686
-4.3442349 2.5615792 -0.16281553
-2.5235717 3.0650704 -0.1791528
-2.0874894 3.1454301 -0.14642005
-1.8332651 2.938782 -0.16248016
-1.5328155 3.0884814 -0.15682259
0.68160683 3.4634266 -0.1294318
0.98188132 3.3087509 -0.10727649
1.2706087 3.3314276 -0.12872353
1.5606349 3.2993188 -0.066428438
-5.8351021 3.0009301 -0.090859786
-5.5831423 3.0106652 -0.083508566
-2.6157699 3.4377112 -0.15049957
-2.2630002 3.3588622 -0.14514314
-1.9181321 3.3224902 -0.14498132
-1.7121055 3.5320427 -0.16577858
0.68735647 3.486625 -0.13003944
0.94340259 3.572562 -0.093409874
2.4472914 4.0281239 -0.0090480912
-5.8400078 3.3982499 -0.091380477
-5.5539641 3.378979 -0.083559848
-3.1324589 3.7397792 -0.097736739
-2.7757943 3.7151556 -0.10284916
-2.3083689 3.650809 -0.11595499
-1.939503 3.7643945 -0.12000378
-1.5541055 3.8371608 -0.12375514
-0.6141845 3.9786007 -0.22120515
-0.24146388 4.142787 -0.1929896
-0.0074681789 4.1723933 -0.16213359
0.42145652 4.2176151 -0.20110638
0.75630319 4.2509265 0.023852414
1.2622507 4.2989473 -0.0057272259
1.5830655 4.3609018 -0.096458912
2.0624914 4.2600846 -0.094472878
2.4250004 4.2601657 -0.095166974
-3.4098198 4.1755881 -0.042926289
-3.0449023 4.037653 -0.096725695
-2.7025163 4.1397214 -0.10376652
-2.3124611 4.1250539 -0.10827699
-1.9937577 4.0362692 -0.11303764
-1.7039435 4.0424089 -0.16811171
-1.0543722 4.4384522 -0.060474306
-0.79859626 4.4034486 -0.056250751
-0.29816806 4.3403797 -0.1597528
-0.018271238 4.484942 -0.16083911
0.3907637 4.4122877 -0.16694957
0.79472923 4.5150061 -0.089509241
1.1696632 4.568048 -0.10176355
1.5842249 4.5838289 -0.14262977
1.9655693 4.5870357 -0.1435982
2.2014403 4.5634885 -0.17337695
-3.5938504 4.4102359 -0.029543577
-3.2223082 4.4407549 -0.039955772
-2.8718445 4.4440522 -0.094520144
-2.3905516 4.6131506 -0.070950978
-2.2396886 4.7345133 -0.068479761
-1.0877552 4.5000687 -0.079305351
-0.71132725 4.6696191 -0.1505025
-0.52397346 4.7172999 -0.13493547
-0.023169622 4.7024603 -0.1276153
0.46005154 4.7743316 -0.12429639
0.71022588 4.7971206 -0.13700505
1.0999937 4.7985463 -0.12062156
1.4358399 4.7943082 -0.1484028
-2.8351786 4.9177332 -0.097361915
-2.4358532 4.9775443 -0.056677483
-2.0981319 5.0171475 -0.066662729
-3.5581908 5.3464627 -0.12599935
-3.3059473 5.3396745 -0.087526895
-2.8057628 5.3087616 -0.045819942
-2.518805 5.2760649 -0.057946242
-4.0290909 5.6168742 -0.11369962
-3.7385068 5.6296568 -0.073828027
-3.210449 5.6773925 -0.032451719
-2.9362628 5.528646 -0.066453144
-4.4138627 6.0497265 -0.086028516
-4.2052684 5.9514375 -0.057610609
-3.6515458 5.9626918 -0.017217174
-3.47367 6.0258989 -0.082524963
-3.1711817 5.8891745 -0.099950828
-1.4935241 6.2336712 -0.078319088
-4.8748765 6.4805989 -0.046868257
-4.429388 6.1917195 -0.08576981
-4.1432405 6.2239299 -0.056798704
-3.9571178 6.2984624 -0.068266913
-0.55710626 6.6636915 -0.11492027
-0.39672682 6.9688191 -0.046725728
-4.9168134 6.5369935 -0.046849325
-4.6304903 6.6948032 -0.052790299
-0.82386333 7.1508274 -0.10195089
-0.35772884 7.09621 -0.046635687
-3.9275041 7.2351031 -0.095433809
-3.3633924 7.1363106 -0.02072992
-3.3153994 7.2064195 -0.019840131
-1.1934364 7.623991 -0.087411672
-0.72757137 7.4585681 -0.031084729
-4.514895 7.6604319 -0.076736026
-3.7843664 7.7432566 -0.013256209
-3.3844345 7.5097675 -0.017952748
-3.2892182 7.5059171 -0.013799711
-1.0881627 8.0458221 -0.013049824
-0.99231714 8.0635614 -0.042289637
-0.54381871 7.9193687 -0.028771603
-4.4077463 7.9257126 -0.047013462
-4.1597652 8.0417652 -0.022335375
-3.5998073 8.0514793 -0.0089470539
-1.5754106 8.3450956 -0.070279315
-1.0225517 8.1338224 -0.0119264
-0.88804108 8.3241081 -0.0096111353
-5.2969465 8.4197102 -0.053448074
-4.2700415 8.2115593 -0.044929728
-4.0382652 8.3073034 -0.018590951
-3.7327473 8.2808161 -0.0081332074
-1.4964771 8.7535582 -0.023870802
-0.89063239 8.6504002 -0.0088195261
-5.1747532 8.6398315 -0.019570727
-5.0395927 8.7810259 -0.017963842
-1.2868619 9.0892992 0.01342017
-7.1773667 9.0414572 -0.16600497
-7.0129557 9.0624046 -0.16405781
-5.1315126 8.9436569 -0.017346259
-4.973279 9.1223068 -0.015390852
-1.2752159 9.4776764 0.015705785
-7.1558051 9.1304464 -0.1660614
-6.7797813 9.4093294 -0.10412978
-6.5455198 9.4724941 -0.06639386
-6.2173271 9.5631838 -0.090901762
-5.7737665 9.4736757 -0.020551322
-5.4859633 9.4551077 -0.018736426
-5.0163131 9.3420725 -0.014186115
-1.7843509 9.8991299 0.040283225
-6.719275 9.6607809 -0.067402326
-6.3918796 9.6763306 -0.099776819
-5.8296623 9.8185139 -0.014929349
-5.331636 9.98312 -0.044479318
-5.0147347 9.9766493 -0.042423047
-4.7583442 10.124686 -0.10488327
-2.4955235 10.322057 -0.021588681
-1.7683651 10.123106 0.029899409
-5.9872746 10.034871 -0.21855681
-5.3625402 10.263597 -0.014558725
-4.9245939 10.431395 -0.012551723
-4.7768512 10.464552 -0.0082260221
-1.7889111 10.751201 0.047390811
-4.8939333 10.536212 -0.011463143
-4.6684356 10.628405 -0.0010699313
-2.5566618 11.296804 0.034338526
-2.1849434 11.418683 0.047841065
-1.8479693 11.502592 0.019123798
-1.6358471 11.546754 0.02221849
-1.1081789 11.561905 -0.0043919627
-0.94993865 11.652057 -0.035795815
-0.56685841 11.689528 -0.065061152
-1.8354173 11.665444 0.020187413
-1.4900506 11.737266 -0.0091477204
-1.0348258 11.814831 -0.037021294
-0.64939189 11.92633 -0.066979311
-0.46133533 11.809097 -0.064053968
-2.3955908 -28.671511 -0.21226542
-2.1557801 -28.614235 -0.21780835
-1.7324755 -28.603798 -0.19976528
-4.2200937 -28.451223 -0.29702345
-3.5422878 -28.570906 -0.2603353
-3.3552623 -28.532755 -0.25785384
-2.8854046 -28.476562 -0.22953224
-2.5262995 -28.515017 -0.22538753
-2.253237 -28.496277 -0.22184038
-1.8935716 -28.335718 -0.23971877
-4.1203585 -28.392374 -0.29546809
-3.5625663 -28.062153 -0.23526566
-3.3695488 -27.945501 -0.23213321
-2.8716514 -28.143507 -0.21536683
-2.5909696 -28.008751 -0.21102028
-4.8375244 -27.743601 -0.29892009
-4.5859761 -27.861519 -0.29696932
-4.1686449 -27.832254 -0.26296467
-3.6305749 -27.886869 -0.23492388
-3.3613706 -27.874172 -0.23159912
-2.9076507 -27.601692 -0.21275598
-2.7162037 -27.839111 -0.14344063
-4.8600516 -27.350945 -0.29646614
-4.2002168 -27.436945 -0.26086217
-3.67116 -27.503551 -0.23311943
-2.7564979 -27.326912 -0.14266188
-4.8410807 -27.240601 -0.29547942
-4.2301416 -27.050932 -0.25867853
-3.9081297 -27.054327 -0.2376558
-4.8600187 -26.839163 -0.29275864
-1.838928 -25.511738 -0.10992228
-1.8313828 -25.396936 -0.10964958
-1.4150476 -23.900738 -0.11275477
-1.2125728 -23.707994 -0.1009283
-1.3260837 -23.633095 -0.11081324
-1.0060455 -23.490711 -0.16509543
-1.5377779 -23.112747 -0.083569713
-1.0763297 -22.999439 -0.10583656
-0.84188044 -22.975311 -0.16005863
-1.3368351 -22.648788 -0.045664959
-1.3311057 -22.537369 -0.045636736
-1.2742596 -22.183243 -0.042473383
-0.43919265 -22.007046 -0.099754363
-1.6286309 -21.828045 -0.049299888
-1.0944244 -22.003777 -0.042899899
-0.68331778 -21.795475 -0.097271107
-0.43651006 -21.790096 -0.099167757
-6.5149322 -22.173733 -0.15759066
-1.4695723 -21.493643 -0.047507338
-1.400671 -21.480034 -0.046595789
-0.89573318 -21.529234 -0.073469944
-0.63557506 -21.223471 -0.053953446
-0.14428578 -21.424154 -0.089294851
-1.2407267 -21.029922 -0.045001738
-0.81608647 -21.012869 -0.037200563
-0.39774129 -20.948473 -0.091145329
-0.19029723 -21.070307 -0.090420946
0.12021175 -20.904388 -0.086275585
-5.7735615 -21.083254 -0.14594364
-1.161603 -20.774555 -0.044204362
-0.77546829 -20.606743 -0.027749086
-0.32937235 -20.691885 -0.089579821
-0.26294282 -20.511391 -0.08817926
0.18170527 -20.5975 -0.085210808
1.6402783 -20.534374 -0.13108884
-5.9516783 -20.921463 -0.092813946
-5.6428313 -20.856003 -0.14378497
-5.4322176 -20.581921 -0.14056662
-0.87200552 -20.296982 -0.022354582
-0.40080348 -20.194895 -0.065544479
-0.22850469 -20.052929 -0.048775144
1.5111487 -19.792994 -0.14676796
1.8406308 -19.826675 -0.11599413
-5.3969579 -20.443388 -0.13976355
-0.50314289 -19.953037 -0.024716282
-0.16491921 -19.889093 -0.047960378
1.5006297 -19.666401 -0.14607675
1.885381 -19.645945 -0.11480487
2.038018 -19.322426 -0.1121368
-5.3729386 -20.053354 -0.08633434
-4.9833159 -19.868027 -0.13332283
-0.53539383 -19.540632 -0.020380938
-0.14456268 -19.39896 -0.06133493
0.018692091 -19.332413 -0.045637406
1.4804568 -19.054964 -0.15215237
1.7029614 -19.164482 -0.1406284
2.1126325 -18.962345 -0.1235479
-5.0886407 -19.342428 -0.042860262
-4.6813784 -19.424324 -0.12854196
-0.12553811 -18.976078 -0.020561868
0.13479641 -18.93548 -0.044163115
1.7805879 -18.725451 -0.13693513
1.88307 -18.569349 -0.13483711
2.2985673 -18.520435 -0.11999924
-5.034966 -19.130964 -0.04280705
-4.5437384 -19.104677 -0.12602884
-4.3807292 -18.94278 -0.12365913
0.15041363 -18.59277 -0.056588292
0.26272514 -18.326008 -0.054802202
1.6601224 -18.395521 -0.14529558
1.9185069 -18.353983 -0.13305612
2.3849587 -18.28163 -0.11821245
-4.7609978 -18.584423 -0.07081645
-4.2482452 -18.623749 -0.12120496
-4.1626067 -18.512686 -0.1198842
-0.65016121 -18.019373 0.01337268
0.16233942 -18.253389 -0.017353097
0.26204383 -18.294678 -0.054781698
1.7899919 -17.956745 -0.14061584
2.0398359 -17.900938 -0.1288439
2.4558733 -17.953142 -0.11606992
2.5881813 -17.680798 -0.113786
3.5882149 -17.77104 -0.095501728
3.9991987 -17.720591 -0.088811584
-4.6455131 -18.365576 -0.069551356
-4.4623799 -18.110994 -0.067540504
-3.9758856 -18.204664 -0.11681691
-3.8034706 -17.946022 -0.11405237
-0.47312766 -17.713367 0.014424836
0.41003692 -17.756386 -0.023078436
0.66819096 -17.593803 -0.023861194
1.6680915 -17.527987 -0.10724788
2.1074648 -17.528896 -0.12569743
2.1974497 -17.360683 -0.12366161
2.6647184 -17.441013 -0.1120268
2.9694152 -17.247131 -0.099843979
-4.3619552 -17.939585 -0.066435672
-4.179369 -17.661352 -0.064421572
-3.6336925 -17.68202 -0.11130001
-0.34973514 -17.380754 0.029245665
-0.23872644 -17.189737 0.029479673
0.63246077 -17.144188 -0.012027482
1.7892935 -17.108578 -0.10323396
2.1445236 -17.063702 -0.10582487
2.7169051 -17.074314 -0.10989078
2.9716561 -16.903074 -0.094125606
-3.9987302 -17.373741 -0.062423147
-3.9106703 -17.233259 -0.061446615
-3.4823461 -17.159718 -0.064636551
-0.12968946 -16.953981 0.029365664
0.85791713 -17.018415 -0.022956276
1.9032443 -16.692453 -0.099326849
2.4386299 -16.740187 -0.11703437
2.5690207 -16.542055 -0.11435764
3.0460269 -16.462826 -0.10445685
3.6347415 -16.45211 -0.10221358
3.8654144 -16.432594 -0.08475893
-3.9806027 -17.007401 -0.01855647
-3.7306607 -16.91938 -0.059447147
-3.5180595 -16.694742 -0.057066403
0.027469516 -16.58552 0.029243803
0.12993461 -16.407749 0.029346114
1.9247098 -16.435005 -0.097477272
2.065877 -16.304424 -0.094977319
2.5791755 -16.279022 -0.11256026
3.0923758 -16.150761 -0.10258145
3.2952967 -16.068531 -0.087990396
3.7140169 -16.256176 -0.085344866
4.2234864 -16.136805 -0.094036564
-3.7258592 -16.606911 -0.016946876
-3.4217541 -16.484621 -0.055992611
-3.0732393 -16.288805 -0.029672513
-2.7823889 -16.351507 -0.051057242
-2.1288898 -16.297909 0.035975687
0.22710994 -16.113068 0.028962424
0.37741464 -16.015116 0.029938256
1.9531634 -16.069729 -0.069793023
2.1584055 -15.851402 -0.091104351
2.6606455 -15.838491 -0.10888009
2.8320382 -15.649578 -0.10580897
3.3578238 -15.660044 -0.098203816
-4.7303176 -16.054949 0.071291648
-4.1205306 -16.021025 -0.13863681
-3.8337438 -15.937759 -0.11611028
-3.2651446 -16.231316 -0.054234989
-3.1156087 -15.997192 -0.052550383
-2.8403921 -15.851376 -0.028313527
-2.2445743 -15.980005 0.032329492
0.51597828 -15.676268 0.029668516
1.8382461 -15.387887 -0.081932239
2.257869 -15.496866 -0.087675311
2.5755332 -15.457218 -0.11340604
2.8743331 -15.341056 -0.10340964
3.3457143 -15.375499 -0.096944265
-5.4002733 -15.791535 0.014729774
-4.9502573 -15.875526 0.026085084
-4.7099648 -15.791823 0.06931489
-4.0851283 -15.672495 -0.15968557
-4.0497537 -15.743539 -0.15965636
-3.3698204 -15.591288 -0.0074749086
-2.9735935 -15.787046 -0.050943695
-2.8309772 -15.556046 -0.049326904
-2.291513 -15.571054 0.028941741
0.035308674 -15.145596 0.055755652
0.69525665 -15.307248 0.029690845
0.78221631 -15.138 0.029802924
1.873049 -15.27448 -0.08082252
1.9438541 -15.071253 -0.078719631
2.4802873 -15.034953 -0.082180284
2.9598324 -15.018031 -0.10039474
3.4810026 -15.081021 -0.094512507
3.5731361 -14.839818 -0.092646383
-6.2997079 -15.403316 -0.063115127
-6.0082507 -15.522625 -0.0417495
-5.5671625 -15.471497 -0.029610241
-4.9446487 -15.497737 0.024049049
-4.7661514 -15.432467 0.065986179
-4.3324561 -15.311707 0.076354884
-4.0924401 -15.286278 -0.15755951
-3.5931249 -15.247299 -0.083663598
-3.1551826 -15.281439 -0.0061027799
-2.6830359 -15.273004 -0.047649451
-2.5125456 -15.134873 -0.045682289
0.079256415 -14.867797 0.054419614
0.90787619 -14.86521 0.029729312
2.0744727 -14.640265 -0.074516818
2.5705094 -14.722112 -0.07918755
3.0192637 -14.602031 -0.097120941
3.110306 -14.576634 -0.095991589
3.6881473 -14.513198 -0.090215303
-6.8301387 -15.092698 -0.13984068
-6.2360377 -15.240777 -0.085612126
-6.0032463 -15.071017 -0.042728119
-5.5757761 -15.031743 -0.030818323
-4.9737959 -15.078135 0.021494305
-4.94347 -14.982272 0.021231463
-4.3852758 -14.940402 0.072757654
-4.0277376 -14.934728 0.075732358
-3.6095915 -14.879766 -0.083620474
-3.0025084 -14.722739 0.031204199
-2.8160777 -14.787203 -0.0039139483
-2.4562187 -14.732072 -0.0083136503
-2.0668409 -14.608487 -0.0034800712
0.39348608 -14.432772 0.055466227
2.1682718 -14.333484 -0.071509823
2.1984675 -14.232156 -0.070526384
2.7097013 -14.206792 -0.074328579
3.1467681 -14.310544 -0.093888894
-6.8022289 -14.772717 -0.13853042
-6.1878686 -14.842153 -0.084991641
-6.1535454 -14.756821 -0.084623776
-5.5766907 -14.737892 -0.031572171
-5.0166721 -14.724276 0.019201448
-4.9550519 -14.693623 0.019558733
-4.4265499 -14.552549 0.069140144
-3.91927 -14.705988 0.074708991
-3.7034819 -14.449172 -0.084414676
-3.4080803 -14.429502 -0.080032773
-2.6811082 -14.564994 -0.0031079892
-2.4990201 -14.321795 -0.0018349681
-2.09883 -14.414393 -0.0063931588
0.55869341 -14.063447 0.055061467
0.68914622 -13.999577 0.056299962
2.1033609 -13.891399 -0.018797854
2.3188126 -13.858778 -0.066776216
2.8097601 -13.793469 -0.070583493
3.0868881 -13.701038 -0.094997205
3.4249911 -13.7458 -0.061108589
-6.7854099 -14.486494 -0.13744165
-6.5728207 -14.385244 -0.095683582
-6.154592 -14.362447 -0.084476374
-5.6095362 -14.261552 -0.033056505
-5.0451794 -14.34687 0.016923105
-5.0122571 -14.249238 0.016672691
-4.4193497 -14.190464 0.066150509
-3.8770158 -14.087308 0.11271044
-3.8287413 -14.085415 0.11306845
-3.1383247 -14.198753 -0.055715315
-2.6861036 -14.04668 0.033129893
-2.3160014 -14.038785 -0.00065898336
-2.1451952 -13.800359 0.00053264759
0.75541931 -13.648876 0.054772273
0.91738731 -13.49367 0.055812605
2.1054256 -13.47215 -0.024875598
2.3686271 -13.473448 -0.0332551
2.8993397 -13.578122 -0.068192758
3.0579593 -13.292387 -0.064494401
3.3858442 -13.260047 -0.045783527
-6.7952418 -14.030707 -0.13608652
-6.5623388 -14.000129 -0.095283531
-6.1654067 -13.885744 -0.084372588
-5.5904527 -13.942653 -0.033672385
-5.4085355 -13.86717 0.0050153043
-4.9910917 -13.894146 0.014943412
-4.6366596 -13.926603 -0.16232945
-4.1556516 -13.784748 0.1044689
-3.6077144 -13.759454 0.099373274
-2.4108143 -13.631526 0.053451188
-2.0310507 -13.619204 0.0012692269
-1.8274693 -13.397008 0.0029167291
1.0230491 -13.22187 0.055300027
2.4404225 -13.159936 -0.031351507
2.6309357 -12.959002 -0.057409331
3.0280399 -12.984454 -0.062968351
3.4696929 -12.910782 -0.044414125
-6.7690163 -13.746318 -0.13489306
-6.6950293 -13.59078 -0.13361186
-6.1780267 -13.556293 -0.08433681
-5.5978684 -13.574696 -0.03463041
-5.3932242 -13.56424 0.0036060121
-2.8692122 -13.070515 -0.035191692
-2.3518424 -13.337367 0.036605157
-2.3095398 -13.313396 0.036960237
-1.7552018 -13.15585 0.0029967632
2.7909834 -12.564802 -0.08663927
2.9228165 -12.464908 -0.071286768
3.458667 -12.389077 -0.033298999
-6.658926 -13.188961 -0.1319292
-6.1585765 -13.2819 -0.084014706
-3.6936417 -12.716949 -0.12461538
-3.1831446 -12.847 -0.078509666
-2.9430401 -12.816362 0.13874395
-2.6179881 -12.679482 0.10713483
-2.1768987 -12.604236 0.1043474
-1.9071879 -12.510947 0.072592489
-1.5863533 -12.493609 0.016620597
-0.047105901 -12.330365 -0.052268617
-0.0081264675 -12.306259 -0.051694341
2.7455809 -12.193002 -0.084792681
3.0856764 -12.04419 -0.04594513
3.2376819 -12.147906 -0.044448845
3.5847425 -12.032278 -0.013151685
4.6879091 -11.807469 -0.057536192
-10.080921 -13.251319 -0.082124032
-4.9533505 -12.429208 -0.02349017
-4.5898089 -12.46989 0.010642117
-4.2194281 -12.482301 -0.1483998
-3.8591871 -12.523644 -0.13880409
-3.5367548 -12.460867 0.096872367
-3.0371351 -12.304689 0.099107824
-2.7103877 -12.312118 0.10201933
-2.1585815 -12.256688 0.069833986
-1.8020055 -12.273276 0.073712476
-1.3843861 -12.237275 0.040777445
-1.0044717 -12.078551 0.0085132476
-0.64387012 -12.130154 -0.023583533
-0.20318225 -12.108173 -0.053710781
0.065790653 -12.055769 -0.050056934
0.70113033 -11.86698 -0.10524083
0.96578592 -11.805325 -0.081017032
1.3488526 -11.862576 -0.068476334
1.7194912 -11.768771 -0.062968917
2.1586814 -11.842663 -0.057454214
2.4724832 -11.839385 -0.053168438
2.9109945 -11.685411 -0.046285123
3.1666009 -11.600269 -0.042276435
3.5464733 -11.774103 -0.013129292
4.6488943 -11.711079 -0.057490982
4.844676 -11.658737 -0.055548131
-10.576512 -12.734473 0.075027786
-10.198936 -12.674608 0.074663885
-5.64785 -12.138605 -0.078597642
-5.1297302 -12.181253 -0.020207668
-4.5424161 -12.088226 0.0090028998
-4.1543341 -12.156712 0.051257558
-3.9520969 -12.19128 0.053104408
-3.4388204 -12.251378 0.095251523
-3.014622 -12.014575 -0.12549119
-2.631413 -11.976087 -0.01041762
-2.2491734 -11.958533 0.029541826
-1.8595715 -11.96296 0.033758841
-1.4484167 -11.881132 0.0025608595
-1.1453242 -11.727004 0.040466644
-0.71650141 -11.704189 0.010863787
-0.29073647 -11.681244 -0.019173967
0.13315624 -11.663302 -0.048123911
0.35653651 -11.473207 0.002170993
0.95578355 -11.698174 -0.080486201
1.2576492 -11.739913 -0.06899973
1.7086983 -11.69993 -0.062722787
1.9615395 -11.613854 -0.05882033
2.6780837 -11.540058 -0.048645727
2.8049452 -11.57913 -0.047130913
3.1526389 -11.275151 -0.040596046
3.4915845 -11.114181 -0.04588367
3.9023392 -11.121663 -0.03030351
4.7739325 -11.046053 -0.017676936
-11.406751 -12.364674 0.023545435
-11.026375 -12.428496 0.062782504
-10.661807 -12.510887 0.073372178
-10.247887 -12.571489 0.073860399
-7.2824106 -12.161003 -0.20888746
-5.7959247 -11.907311 0.11716009
-5.6087737 -12.051129 -0.078183182
-5.0660467 -11.792211 -0.034280099
-4.7201719 -11.813943 0.044419594
-4.3093038 -11.736634 0.046662815
-3.7973883 -11.768518 0.087160997
-3.6054947 -11.677127 -0.094000503
-3.1894758 -11.708234 -0.053586498
-2.8358581 -11.784811 -0.085403755
-2.3873034 -11.68963 -0.079825059
-1.8703115 -11.544671 0.10096043
-1.472404 -11.466413 0.070033677
-1.0901374 -11.508343 0.039786004
-0.85746872 -11.320427 0.041427337
-0.40837094 -11.281725 0.013388073
0.0017731488 -11.292126 -0.015458422
0.44569147 -11.235908 -0.042841867
0.65900183 -11.09511 0.0032065939
2.2374833 -10.905416 -0.017227026
2.3038003 -10.875858 -0.016197639
2.9409878 -10.937085 -0.051558897
3.2500024 -10.9541 -0.037396371
3.6876466 -10.878469 -0.030871117
4.0423002 -10.881464 -0.025924252
4.4016786 -10.797005 0.011370087
4.6672134 -10.820168 0.033146098
-11.485431 -12.030292 0.070473425
-11.026828 -12.11471 0.06048777
-10.715257 -12.136209 -0.0095809195
-5.8210588 -11.480821 0.11165405
-5.5382519 -11.497493 -0.077223293
-5.1524787 -11.439011 0.0010016914
-4.730617 -11.402688 0.04108683
-4.2785845 -11.368958 0.079604708
-4.1375294 -11.324434 0.11012987
-3.7132993 -11.361665 0.13428579
-3.1432922 -11.372589 0.15003477
-2.5836689 -11.340596 0.14912479
-2.1993999 -11.188601 0.13675153
-1.8898931 -11.082594 0.1377269
-1.5163662 -11.095722 0.099278219
-1.1446261 -11.097687 0.070388779
-0.69579089 -10.973957 0.041280732
-0.33227026 -11.024045 0.013529768
0.13629088 -10.926073 -0.013773197
0.34015793 -10.804664 -0.011084104
0.72934449 -10.739224 -0.037706405
1.1017056 -10.614672 0.005110709
2.1377316 -10.607169 -0.01781402
2.2938232 -10.670252 -0.015762882
3.0157351 -10.704665 -0.0092943404
3.3332679 -10.503227 -0.033632286
3.4928439 -10.425249 -0.03095712
4.040338 -10.335999 -0.034510732
4.5425882 -10.383535 0.013502153
4.6323404 -10.409904 0.014214097
5.0666804 -10.14656 0.05061397
-11.89439 -11.749305 0.057725124
-11.59973 -11.696925 0.068459295
-11.288495 -11.688441 0.10488667
-10.933078 -11.795188 -0.053548299
-8.2636242 -11.39832 -0.10069749
-7.5949001 -11.118574 -0.066631727
-6.2671833 -11.025144 0.10500165
-6.0139761 -11.05941 0.10591231
-5.6023059 -11.074685 -0.077567212
-5.1766138 -11.008824 -0.0012806896
-4.7398839 -11.013611 0.037971489
-4.3578811 -10.927016 0.074370392
-4.1594701 -10.93748 0.10483616
-3.7702277 -11.045504 0.12850638
-3.0996163 -10.864176 0.1739345
-2.9145238 -10.71846 0.17163207
-2.1933792 -10.89497 0.14593144
-1.818522 -10.844655 0.13457766
-1.4501257 -10.813993 0.1232389
-1.1488705 -10.604262 0.097398832
-0.82995319 -10.620279 0.069733717
-0.37289333 -10.604297 0.043053269
0.043534905 -10.434377 0.016522905
0.45836133 -10.45648 -0.0095739607
0.67881292 -10.277826 -0.0066114459
1.0342979 -10.37644 -0.032586068
1.387558 -10.223165 0.0061392691
1.993969 -10.252116 -0.018867301
2.5225792 -10.309416 0.02019695
2.8274257 -10.164226 0.043911628
3.2459481 -10.152898 -0.0054368544
3.5210843 -10.136692 -0.0074489992
4.0743079 -10.003962 -0.031973176
4.4650679 -9.9533558 0.012871256
4.567534 -10.009731 0.013745109
5.0265679 -9.9109898 0.0491869
-12.409141 -11.24655 -0.011109093
-11.924295 -11.411279 0.055510335
-11.549598 -11.279707 0.06581571
-11.293146 -11.327431 0.10165166
-7.5744877 -10.936294 -0.067596428
-6.4094563 -10.779618 -0.12131093
-6.0721273 -10.707075 -0.081542537
-5.6259379 -10.652423 -0.041318335
-5.2356548 -10.681411 -0.0032643024
-4.7745485 -10.61301 0.034648083
-4.3681927 -10.54633 0.070251755
-4.1329322 -10.349548 0.1030364
-3.7367344 -10.33563 -0.088465452
-3.4066827 -10.643929 0.16788237
-2.6730642 -10.465509 0.16732229
-2.4317272 -10.323566 0.165518
-2.0189757 -10.387543 0.13806614
-1.4397237 -10.412267 0.13637067
-1.0923944 -10.3168 0.11966922
-0.8835637 -10.221979 0.095832251
-0.44433612 -10.19022 0.070527025
-0.0079568326 -10.089327 0.044622868
0.32372257 -10.010395 0.018911248
0.78499281 -9.9956789 -0.0052098352
1.1565084 -10.020078 -0.029943625
1.3799417 -9.7757483 -0.026185555
1.9958513 -9.7856951 -0.017537879
2.3854725 -9.7608433 -0.011871757
2.5142746 -9.6763697 0.010599984
3.2915671 -9.8649807 -0.0044744555
3.6396549 -9.7271185 -0.024836844
3.7761791 -9.7102089 -0.022818403
4.1908617 -9.5877218 -0.027995316
4.5944405 -9.7598953 0.027389502
4.9858117 -9.6796885 0.047681063
-12.773129 -10.881841 -0.061310224
-12.24885 -10.993996 -0.02411815
-11.891981 -10.95361 0.052629821
-11.577308 -10.952738 0.063915737
-11.404512 -10.918728 0.027708312
-7.1085596 -10.272454 -0.065618567
-7.0366359 -10.306111 -0.064826362
-6.4737592 -10.348583 -0.12046393
-6.0895886 -10.342747 -0.081386112
-5.629447 -10.250029 -0.042120494
-5.2510796 -10.201323 -0.0056258086
-4.8506241 -10.157774 0.030726766
-4.4646521 -10.12187 0.065269001
-4.1048102 -10.042527 0.1307496
-3.6756296 -10.000569 0.10057097
-3.4832492 -9.8504667 0.099552639
-2.7528682 -10.025592 0.17023472
-2.5589812 -9.9238396 0.16938274
-2.0562885 -9.9702358 0.15985386
-1.7652934 -9.7927685 0.15774755
-1.1065416 -9.9737129 0.12682433
-0.80387264 -9.9421225 0.1173004
-0.47694972 -9.7927666 0.09553875
-0.089499973 -9.7076197 0.07067287
0.29478243 -9.6563978 0.046038888
0.67425454 -9.5998087 0.022428883
1.0824785 -9.5406065 -0.0011409093
1.4918821 -9.4919195 -0.023844687
2.0155616 -9.4372568 -0.016279219
2.3702197 -9.5735617 -0.011558587
2.7062266 -9.4181719 0.022942981
2.8740404 -9.1705198 0.033756889
3.6736755 -9.3651934 -0.022241578
3.7471862 -9.0872803 -0.00088081695
4.2582107 -9.3131752 -0.01980661
4.4684505 -9.0895472 0.004563326
-12.766133 -10.806265 -0.061725266
-12.656435 -10.711427 -0.061631165
-11.890974 -10.745177 0.051305376
-11.805596 -10.73963 -0.0042077098
-7.2114506 -10.144362 -0.067073576
-7.0570474 -10.195715 -0.065509714
-6.4791341 -9.9927473 -0.11926332
-6.1613259 -9.909688 0.091829471
-5.6827478 -9.8868399 -0.04318402
-5.2589169 -9.8182592 -0.007435644
-4.8997693 -9.8457365 0.028114414
-4.4681029 -9.7779007 0.061674811
-4.1474695 -9.7440863 0.1578927
-3.7270336 -9.7061386 0.12670134
-3.2964208 -9.7009754 0.098550893
-2.9973571 -9.4914885 0.097451001
-2.1509924 -9.5578012 0.16405243
-1.7400186 -9.6388731 0.15450533
-1.3668411 -9.4175787 0.15218866
-0.77574855 -9.550498 0.13478392
-0.3488588 -9.4125748 0.11473116
-0.074337475 -9.2897882 0.094621822
0.26185429 -9.2292204 0.071038157
0.66158009 -9.2393799 0.048618935
1.0526257 -9.1657171 0.026453285
1.379385 -9.0767899 0.0030297544
1.959265 -9.0528736 -0.016004195
2.113369 -9.0576372 -0.013802962
2.7921424 -8.9679937 0.024349866
2.8948412 -8.9432087 0.044311814
3.5630105 -8.8429594 -0.020740367
3.9496248 -8.8804827 -0.015488494
4.0949984 -8.6787395 -0.012225881
4.5733047 -8.6664553 0.0025868621
5.020432 -8.5604963 0.077479608
-12.499979 -10.281125 -0.081069954
-11.926953 -10.325519 -0.014391476
-11.861017 -10.266954 -0.014585311
-9.1985073 -9.9701929 0.015239036
-9.1083288 -9.8691645 0.014884776
-6.1917276 -9.5401716 0.087520577
-5.7866249 -9.4596348 0.11925089
-5.2966189 -9.3689508 -0.0096768383
-4.8775358 -9.4076271 0.025003618
-4.5570431 -9.3227634 0.056601934
-4.2009726 -9.32265 0.1801822
-3.7329848 -9.3117113 0.15067545
-3.4123163 -9.1655893 0.14882807
-3.0087671 -9.1619072 0.12102192
-2.5856268 -9.1656151 0.095602445
-2.3790724 -8.9580555 0.094131954
-1.8110843 -9.2446051 0.15961145
-1.3830135 -8.9832001 0.1574436
-0.93995243 -9.0493011 0.14717062
-0.38446683 -9.1077099 0.12009571
0.010570645 -9.0509682 0.09287367
0.20640466 -8.8749561 0.0934209
0.58081472 -8.7823458 0.071479745
0.95112413 -8.6860638 0.049477577
1.3561475 -8.6615391 0.029369263
1.7227631 -8.5737524 0.0080146249
2.1053131 -8.6647091 -0.012802524
2.5032232 -8.5373831 0.019896155
3.0146873 -8.7138462 0.05080802
3.5323226 -8.5349817 -0.019365231
3.9889796 -8.5986252 -0.013261545
4.0453672 -8.5753756 -0.012320241
4.6593342 -8.3722944 0.0032663438
4.954041 -8.3277397 0.075048096
-9.8149614 -9.4427795 -0.051987417
-9.4552259 -9.5400801 -0.016397292
-6.171083 -9.1125813 0.082670607
-5.8063078 -9.0887985 0.11400186
-5.3764987 -9.0626249 0.14530762
-4.9130421 -8.968008 0.021648264
-4.5682659 -8.9686098 0.05298873
-4.0237598 -9.0838242 0.19906573
-3.6409781 -8.947114 0.17260188
-3.4185109 -8.8724899 0.17135997
-3.0309448 -8.790658 0.14295107
-2.5897784 -8.7891035 0.11710619
-2.2168231 -8.7797661 0.092796899
-1.8554134 -8.5828934 0.092876829
-0.93761712 -8.5557899 0.15171917
-0.54182154 -8.5823326 0.14008163
-0.014655724 -8.6573839 0.11692757
0.29612806 -8.5321894 0.11002072
0.56439823 -8.3840857 0.092640668
0.89451355 -8.3312044 0.072050124
1.2385635 -8.3602352 0.051865935
1.7532167 -8.3247576 0.0084573273
2.1772404 -8.1170588 0.014892248
2.4641528 -8.2201748 0.01933126
2.7644627 -8.0945988 0.044227861
3.4904072 -8.003686 -0.01683051
3.6229908 -8.1326561 0.00072019361
4.1375661 -8.1149015 0.010329889
4.3816872 -8.028738 0.032971568
-9.7244339 -9.2941418 -0.05235029
-8.8494205 -8.8526449 -0.05877272
-8.6628618 -8.9839325 -0.025910759
-6.1477394 -8.7058935 0.078148745
-5.8274302 -8.7416887 0.10918923
-5.439147 -8.6491947 0.13842025
-5.0004473 -8.5916195 0.018592214
-4.6160612 -8.571949 0.048876353
-4.3033166 -8.4941158 0.082134791
-4.0363798 -8.6247158 -0.084739588
-3.2478292 -8.5866671 0.18743052
-3.00667 -8.4908915 0.16394119
-2.6607456 -8.3300686 0.16150714
-2.2702091 -8.3043604 0.13707647
-1.8887067 -8.2727556 0.11304288
-1.48476 -8.2126055 0.090752028
-1.2556939 -8.1073866 0.091400504
-0.50900459 -8.1633425 0.14702874
-0.21053578 -8.2711143 0.13614969
0.12589952 -8.0676746 0.13495173
0.64893007 -8.1377172 0.090950035
0.91888779 -7.980504 0.093221247
1.2719932 -7.8441029 0.073601633
1.7632141 -7.9394693 0.033455513
2.1020863 -7.9474878 0.013749151
2.4657497 -7.9553022 0.019399052
2.9387047 -7.8788795 0.062502131
3.3062885 -7.6410394 0.065649115
3.5974166 -7.8756599 0.0012526419
3.9226849 -7.8126154 0.019566962
4.4906106 -7.5595279 0.063491963
-13.400316 -9.0736475 0.10865282
-8.9224911 -8.5929813 -0.060317807
-8.6631498 -8.6339455 -0.025551358
-6.12853 -8.3280048 0.074033745
-5.8160038 -8.2495565 0.10247412
-5.4503932 -8.2432375 0.13171871
-5.0059724 -8.1640539 0.015647491
-4.6700077 -8.1547422 0.044651903
-4.3465781 -8.1804457 0.077267744
-4.0547705 -8.1721354 -0.083066218
-3.3514192 -8.1403084 0.19166906
-2.9034905 -8.1658077 0.17177682
-2.5524395 -8.0721741 0.17625837
-2.2890058 -8.0079346 0.15581693
-1.9766018 -7.8312845 0.15343085
-1.5982056 -7.8225613 0.13189118
-1.0380244 -7.8099308 0.089194506
-0.72365576 -7.6568112 0.090324625
-0.1191271 -7.8658819 0.14460541
0.292891 -7.8177953 0.13111098
0.67056775 -7.790699 0.11138465
1.0190561 -7.6060681 0.090377733
1.2335217 -7.5436053 0.093154557
1.6661689 -7.4646654 0.053409517
2.0815647 -7.4457049 0.037152939
2.4110389 -7.3777037 0.018648831
2.7524011 -7.3874302 0.048262812
3.4073596 -7.1288395 -0.012834108
3.5033383 -7.1498179 -0.011587782
3.9143603 -7.059247 0.018958705
4.2588596 -7.1236167 0.057328105
-6.3133192 -7.9175301 -0.10998686
-5.8130012 -7.9122515 0.097986676
-5.4971566 -7.8085728 0.12482686
-5.1514134 -7.8023272 0.1512811
-4.7158966 -7.7578583 0.040770583
-4.4514117 -7.7624645 0.070774876
-4.0921135 -7.7598047 0.088533603
-3.544153 -7.6285772 0.20322454
-3.2115028 -7.5151539 0.19876722
-2.7009568 -7.6851368 0.18355176
-2.3173368 -7.516223 0.28560734
-2.0730627 -7.4695663 0.28378284
-1.5382602 -7.4371777 0.14714196
-1.1320169 -7.3980365 0.1271175
-0.78140748 -7.3433042 0.10682555
-0.41561103 -7.3078065 0.088709898
0.574283 -7.2284579 0.13853213
1.0466373 -7.3242893 0.1004352
1.3005521 -7.2460117 0.090801723
1.5590603 -7.1021786 0.093622528
2.0268347 -7.0410194 0.057093143
2.4868882 -6.9629736 0.042653106
2.6338184 -6.7922034 0.073081687
3.3646028 -6.9841328 -0.012584651
3.4526968 -7.0484605 -0.011708505
3.8707483 -6.9823837 0.018229337
4.2426972 -6.7045135 0.054349601
-6.2900171 -7.5299234 -0.1082553
-6.084383 -7.5235033 0.065587692
-5.5395637 -7.4950333 -0.045720711
-5.1776042 -7.4142504 0.14414236
-4.7684216 -7.3496351 0.036899172
-4.5098758 -7.3589063 0.064764671
-4.1730289 -7.184063 -0.097077124
-3.6432724 -7.0785222 0.095451489
-3.0402727 -7.3601327 0.19348696
-2.6916614 -7.2032475 0.18799998
-2.222342 -7.1745567 0.2823959
-1.9356663 -7.216742 0.27379143
-1.5884333 -7.059598 0.26823682
-1.171313 -7.0924621 0.14194448
-0.78797346 -6.9389849 0.14189106
-0.38882083 -6.9280214 0.10390276
0.019800484 -6.8687534 0.087722428
0.23052141 -6.6792412 0.087820895
0.89147669 -6.8379822 0.13383166
1.3759854 -6.8230481 0.097895615
1.6449699 -6.6900253 0.090452209
2.0188243 -6.6613979 0.07625436
2.3539562 -6.6302385 0.060662091
2.6338525 -6.5290289 0.056563549
3.0128114 -6.5381699 0.077469707
-6.2835355 -7.137517 -0.10663086
-6.0612922 -7.1081614 0.061418407
-5.5883436 -7.0702853 -0.046440311
-5.205524 -7.0076637 0.13687952
-4.8045969 -7.0480094 0.03414274
-4.4121089 -6.9278536 -0.087456249
-4.1389256 -6.9112768 -0.096836142
-3.7678919 -6.7972703 0.086151801
-2.3123815 -6.5829973 0.29218441
-1.8328421 -6.8180065 0.28474396
-1.4337595 -6.7106051 0.27260792
-1.1827934 -6.6942539 0.25512516
-0.85912704 -6.5320239 0.25061539
-0.37183702 -6.5452871 0.13711458
-0.048241034 -6.4764605 0.12011046
0.42319763 -6.4112892 0.086642571
0.65094173 -6.3950047 0.08992625
0.99962229 -6.2209024 0.10115711
1.7362661 -6.2090755 -0.011118658
2.008131 -6.3027802 0.092975058
2.3155997 -6.1835251 0.077975281
2.5717824 -6.1956744 0.0744057
2.9689662 -6.1464458 0.068533398
-6.3050623 -6.7999349 -0.10545208
-6.0420079 -6.7233176 0.057693265
-5.650095 -6.6489015 -0.047118984
-5.3322515 -6.6225786 -0.020411218
-4.6724706 -6.7188601 -0.094840236
-4.4164119 -6.4008722 0.029203875
-4.1673317 -6.5284672 0.053026728
-3.7639422 -6.4845819 0.079858072
-2.4011731 -6.4027758 0.28999776
-2.0993814 -6.3057742 0.28428376
-1.6375542 -6.3190842 0.27658823
-1.2978463 -6.1943946 0.27012765
-0.67213744 -6.3167295 0.24328874
-0.43816584 -6.1157532 0.23727389
-0.12286557 -6.0154533 0.23689763
0.29655948 -6.0402966 0.11592557
0.71029073 -5.9814034 0.10273664
1.138762 -5.8984265 0.090862162
1.3831897 -5.7621346 0.096655332
2.0109131 -5.8267131 0.012658218
2.3168097 -5.8164721 0.093978956
2.6268382 -5.6924596 0.080419771
2.9396145 -5.821157 -0.00053047948
3.3798532 -5.6500463 0.012651736
-6.0196047 -6.3168631 0.053910039
-5.750967 -6.3666263 0.078615554
-5.4326377 -6.14856 -0.070756279
-4.7979288 -6.172123 0.11963191
-4.4788957 -6.1868558 0.02725864
-4.1838522 -6.0200481 0.045792527
-3.8921845 -6.0578642 0.071430869
-1.2354929 -5.9123573 0.26461345
-0.95883536 -5.945426 0.25801769
-0.32741886 -5.883049 0.23998486
-0.12370096 -5.8353338 0.22940232
0.25853983 -5.6350203 0.22678989
0.67851621 -5.5973325 0.12998894
1.0371387 -5.4910636 0.11724191
1.4230936 -5.469841 0.090009667
1.8139384 -5.4232745 -0.0076500438
2.2556834 -5.4052405 0.034902684
2.6616006 -5.3314729 0.096507646
2.8685052 -5.3831782 3.6900863e-05
3.2775786 -5.2896924 0.0099949408
-6.1730871 -5.9967208 -0.1008632
-5.7278385 -5.873579 -0.096325964
-5.3279529 -5.8349271 0.070701562
-5.0155454 -5.8293104 0.09258505
-4.5235529 -5.7595863 0.023677086
-4.2910504 -5.7709622 0.042332582
-3.9072208 -5.6860356 -0.058647618
-0.091220573 -5.3825045 0.24584611
0.33384109 -5.3749824 0.2257755
0.68764782 -5.1924248 0.21654628
1.0735822 -5.19451 0.12807424
1.4200237 -5.1243486 0.11764596
1.8117685 -5.0439172 0.092009716
2.2355056 -4.9982262 0.033643208
2.641027 -4.9534764 0.075384967
2.9339559 -4.957284 0.099235944
3.2561827 -4.8157187 0.094322123
-5.6466646 -5.3530049 -0.093363665
-5.3670092 -5.4109955 0.11146685
-4.9898052 -5.3236117 0.085362703
-4.694994 -5.2585282 -0.00083756633
