# .PCD v0.7 - Point Cloud Data file format
VERSION 0.7
FIELDS x y z
SIZE 4 4 4
TYPE F F F
COUNT 1 1 1
WIDTH 1448
HEIGHT 1
VIEWPOINT 0 0 0 1 0 0 0
POINTS 1448
DATA ascii
1.1889286 -17.211811 -0.029815193
2.229126 -16.871727 -0.11421153
2.7649751 -16.912169 -0.13564759
2.892657 -16.712269 -0.13425292
3.3685918 -16.626505 -0.12789179
3.9571049 -16.607738 -0.12986171
4.1876068 -16.585035 -0.11408563
-3.649128 -17.266951 0.0090345778
-3.4007103 -17.175598 -0.033792447
-3.1911929 -16.948069 -0.033326652
0.35302648 -16.790215 0.027528141
0.45304671 -16.611057 0.026583683
2.2470784 -16.614008 -0.1129737
2.3864594 -16.481504 -0.11171221
2.8992231 -16.449118 -0.13299668
3.4106767 -16.313833 -0.12690276
3.6125515 -16.228809 -0.11390427
4.0338082 -16.410706 -0.11390738
4.5415201 -16.284395 -0.12644105
-3.3998847 -16.863014 0.0081156231
-3.0977671 -16.73665 -0.033313435
-2.7517879 -16.536036 -0.0098258369
-2.4602659 -16.594797 -0.033170279
-1.8069617 -16.532104 0.049109232
0.54617441 -16.315077 0.024982583
0.69512725 -16.215078 0.024713065
2.2707255 -16.248325 -0.086143866
2.4728034 -16.027254 -0.10930582
2.9746799 -16.007513 -0.13068207
3.1434882 -15.816267 -0.12916869
3.6694076 -15.819528 -0.12529081
-4.4111509 -16.324675 0.10252391
-3.8033919 -16.28281 -0.11180344
-3.5176196 -16.195589 -0.09146899
-2.9446311 -16.481226 -0.033122938
-2.7983062 -16.245077 -0.032920893
-2.5249465 -16.095463 -0.010905217
-1.9270092 -16.21582 0.04572076
0.82903445 -15.874371 0.02285235
2.1464036 -15.568147 -0.098679155
2.5674269 -15.671388 -0.10721728
2.8843272 -15.627447 -0.135281
3.1815724 -15.507193 -0.12762055
3.6534142 -15.535174 -0.1244521
-5.0850329 -16.070553 0.050266925
-4.633841 -16.148363 0.058565695
-4.3944163 -16.061302 0.099933282
-3.7729139 -15.93387 -0.13372494
-3.7365706 -16.004423 -0.13382114
-3.0577228 -15.842605 0.013241004
-2.659173 -16.033007 -0.03270049
-2.5197241 -15.800076 -0.032511394
-1.9795637 -15.807559 0.041938733
0.34134465 -15.350273 0.051417392
1.0032406 -15.502936 0.020939868
1.0878741 -15.332515 0.020130832
2.1796582 -15.454273 -0.098019511
2.2476878 -15.250093 -0.096783251
2.7835352 -15.206469 -0.10413006
3.2626615 -15.183025 -0.12579048
3.7846725 -15.238871 -0.12350897
3.873507 -14.996428 -0.12272911
-5.9902248 -15.694819 -0.021860104
-5.6970186 -15.810091 -0.0023587756
-5.2565966 -15.752914 0.0065467097
-4.6334181 -15.770538 0.055816505
-4.4555383 -15.702755 0.096364543
-4.0234742 -15.576056 0.10342813
-3.7854958 -15.547788 -0.13223512
-3.2862494 -15.501845 -0.061967816
-2.8473423 -15.529848 0.012531836
-2.3756626 -15.515035 -0.032392334
-2.2070694 -15.374583 -0.031885948
0.38147524 -15.071903 0.049273241
1.2097844 -15.058033 0.018675905
2.3724217 -14.817355 -0.09427914
2.8694859 -14.892418 -0.10233766
3.3164151 -14.766246 -0.12368149
3.4071066 -14.739606 -0.12324601
3.9840515 -14.668262 -0.1216995
-6.5253887 -15.39163 -0.095358297
-5.928947 -15.531468 -0.045099732
-5.6982026 -15.35846 -0.0041778199
-5.2712374 -15.313323 0.0046163537
-4.6683235 -15.351381 0.052721713
-4.6393151 -15.255112 0.052072007
-4.0813956 -15.205516 0.099545568
-3.7239561 -15.194948 0.099962994
-3.3077438 -15.134575 -0.062462319
-2.7020681 -14.969046 0.047754515
-2.515027 -15.031019 0.011424068
-2.1559973 -14.970981 0.004362572
-1.7683235 -14.842075 0.0062018596
0.68972039 -14.632623 0.047306012
2.4620318 -14.509315 -0.092487156
2.490844 -14.407581 -0.091899425
3.0016422 -14.375237 -0.099388763
3.4399374 -14.473039 -0.12187731
-6.501852 -15.071295 -0.094817162
-5.8862352 -15.132222 -0.045532789
-5.8530822 -15.046428 -0.045561548
-5.2761793 -15.019514 0.003345374
-4.7160544 -14.998147 0.050103758
-4.6548581 -14.966652 0.049967427
-4.1279988 -14.818273 0.095531031
-3.6186399 -14.96475 0.097759292
-3.4075224 -14.705308 -0.063354984
-3.1123948 -14.681591 -0.061112713
-2.3831093 -14.806984 0.010872472
-2.2043629 -14.561316 0.010414872
-1.802986 -14.648444 0.0031708591
0.84984994 -14.261076 0.045066159
0.97942162 -14.195426 0.045261454
2.3914521 -14.068062 -0.040102016
2.6060908 -14.032587 -0.089672089
3.0960579 -13.96058 -0.097093165
3.3717146 -13.864414 -0.1236452
3.7106297 -13.904483 -0.09208639
-6.4889455 -14.784869 -0.094358295
-6.2774706 -14.680643 -0.054296296
-5.8595252 -14.652107 -0.046109464
-5.3155499 -14.543673 0.0012462027
-4.7497387 -14.621171 0.047356013
-4.7181592 -14.523099 0.046697069
-4.1257758 -14.45613 0.091844916
-3.5845883 -14.345482 0.13435619
-3.5363436 -14.342927 0.13436688
-2.8456566 -14.44713 -0.039128859
-2.3949409 -14.288721 0.046221282
-2.0252316 -14.27583 0.0097826384
-1.8577008 -14.03509 0.0093325414
1.0408759 -13.843856 0.042636696
1.2007074 -13.686448 0.042246539
2.3877354 -13.648836 -0.046941433
2.6508634 -13.64655 -0.057193447
3.1826966 -13.744023 -0.095724419
3.3374124 -13.45614 -0.093665376
3.6649482 -13.419284 -0.0773485
-6.5050049 -14.329258 -0.093745396
-6.2722583 -14.295421 -0.054657217
-5.876862 -14.175598 -0.046778139
-5.300838 -14.224544 -7.3920935e-05
-5.1197019 -14.14651 0.037182231
-4.701869 -14.167755 0.044184264
-4.3482938 -14.195697 -0.1355509
-3.8673911 -14.046777 0.12756066
-3.3199017 -14.014002 0.11851659
-2.1252232 -13.869805 0.06384103
-1.7460444 -13.852389 0.0089331083
-1.5455171 -13.627429 0.0087342598
1.3026327 -13.413231 0.040496882
2.7183726 -13.332084 -0.056360077
2.9059274 -13.128614 -0.084132478
3.3032928 -13.148644 -0.092474982
3.7440162 -13.068905 -0.077198893
-6.4826655 -14.044536 -0.093245596
-6.4108081 -13.888 -0.092768699
-5.8939891 -13.846354 -0.047239598
-5.3132963 -13.856728 -0.0016347952
-5.1085482 -13.843404 0.035124052
-2.5918734 -13.315283 -0.022533562
-2.0704038 -13.574901 0.046051126
-2.0284319 -13.550353 0.046062116
-1.4765586 -13.385306 0.0078696944
3.0603533 -12.73232 -0.1152043
3.190912 -12.630602 -0.10096942
3.7259295 -12.547379 -0.066935226
-6.380197 -13.485722 -0.092059359
-5.8782959 -13.571721 -0.047545042
-3.4216781 -12.973195 -0.10671163
-2.9091351 -13.096166 -0.064012215
-2.6679363 -13.06184 0.15147038
-2.3450212 -12.920586 0.11730252
-1.9050348 -12.839322 0.11123875
-1.6368588 -12.742414 0.077397034
-1.3166977 -12.720795 0.019110147
0.21964094 -12.536648 -0.061033759
0.25828987 -12.512011 -0.060780142
3.0098803 -12.361172 -0.1136969
3.3481741 -12.207653 -0.077538438
3.5015912 -12.309276 -0.076940246
3.8472497 -12.188855 -0.048322462
4.9468904 -11.949067 -0.10096537
-9.8005714 -13.594774 -0.017766055
-4.6844554 -12.702518 0.0028722323
-4.3201585 -12.73816 0.034486208
-3.9507811 -12.745805 -0.12716785
-3.5899498 -12.782199 -0.12006509
-3.2667425 -12.714576 0.11319609
-2.7693043 -12.551578 0.11159386
-2.4424744 -12.554531 0.11219074
-1.8917216 -12.491623 0.075976446
-1.5349343 -12.503326 0.07734412
-1.1180915 -12.461679 0.041370694
-0.74062443 -12.297837 0.0061179958
-0.37958807 -12.344563 -0.028454889
0.060531966 -12.316617 -0.061759945
0.32878128 -12.260532 -0.060115766
0.96106863 -12.063177 -0.12016077
1.2250204 -11.997863 -0.097932912
1.6089134 -12.049849 -0.088019513
1.9782627 -11.950974 -0.085319839
2.4184504 -12.018842 -0.082802407
2.7321999 -12.011265 -0.080758117
3.1685998 -11.851297 -0.077273339
3.423039 -11.76266 -0.075237438
3.8054512 -11.931229 -0.048487529
4.9065619 -11.85322 -0.100814
5.1016169 -11.798202 -0.10035923
-10.302061 -13.08446 0.14199105
-9.9253531 -13.019439 0.13883059
-5.3832402 -12.421543 -0.047803987
-4.8641849 -12.456993 0.0069693215
-4.2780066 -12.355888 0.031829271
-3.8887343 -12.41898 0.07144013
-3.6860349 -12.450778 0.071907789
-3.1716986 -12.503771 0.11050425
-2.7523592 -12.261606 -0.11367646
-2.3689063 -12.217665 -0.0014046021
-1.9866693 -12.194812 0.035799403
-1.5970242 -12.193902 0.03724866
-1.1872602 -12.106518 0.0029766299
-0.8860451 -11.94819 0.038447473
-0.45779625 -11.919569 0.0057498179
-0.032609858 -11.890862 -0.027361158
0.39078072 -11.86718 -0.05936211
0.61188924 -11.673954 -0.010998692
1.2135564 -11.890861 -0.097521782
1.5160384 -11.928445 -0.088111743
1.9665306 -11.882286 -0.085119501
2.2181911 -11.792755 -0.083171792
2.9337106 -11.709148 -0.078233644
3.0611029 -11.746477 -0.077553019
3.4046404 -11.437762 -0.074037015
3.7413042 -11.272182 -0.082026005
4.1522222 -11.274018 -0.069359168
5.0227647 -11.186472 -0.063076921
-11.137627 -12.726146 0.09576571
-10.756144 -12.784687 0.13240565
-10.390417 -12.862064 0.14054467
-9.9757128 -12.917002 0.1381921
-7.0182223 -12.466536 -0.16640566
-5.5330734 -12.191929 0.14859115
-5.3453631 -12.333542 -0.047823783
-4.805934 -12.067142 -0.0082497112
-4.4592438 -12.083997 0.068022549
-4.049468 -12.001072 0.067200899
-3.5368891 -12.025878 0.10410792
-3.3475559 -11.932211 -0.078578576
-2.9308743 -11.95755 -0.041073967
-2.5764773 -12.029345 -0.075273082
-2.1292396 -11.928027 -0.073059678
-1.613011 -11.775674 0.10377951
-1.2164422 -11.69204 0.069879442
-0.8338623 -11.728796 0.03698403
-0.60378206 -11.537715 0.036632914
-0.15546712 -11.492929 0.0053260662
0.25456494 -11.497773 -0.026422989
0.69746578 -11.435542 -0.057068367
0.90915036 -11.291755 -0.012791675
2.4847002 -11.080533 -0.04480793
2.5506122 -11.05007 -0.044303689
3.1883097 -11.102643 -0.084094226
3.4976203 -11.115405 -0.072103187
3.9342232 -11.033786 -0.068830669
4.2889099 -11.03192 -0.066405162
4.6473532 -10.942486 -0.03182257
4.9133282 -10.961975 -0.011897542
-11.220541 -12.392785 0.14265706
-10.760908 -12.470942 0.129555
-10.449578 -12.48831 0.057306904
-5.5640807 -11.765834 0.14250429
-5.2824202 -11.778992 -0.048352938
-4.8969388 -11.715094 0.027017433
-4.4753404 -11.67293 0.064031392
-4.023551 -11.632951 0.09926784
-3.8829048 -11.586445 0.12870796
-3.4580448 -11.617826 0.14990734
-2.8878448 -11.620924 0.16161461
-2.3287337 -11.581285 0.15666088
-1.9466791 -11.424073 0.14127958
-1.6386536 -11.313841 0.13986106
-1.265265 -11.321933 0.098775789
-0.89374804 -11.318868 0.067242354
-0.44686693 -11.189068 0.034717079
-0.082901686 -11.234232 0.0044664033
0.38406828 -11.129914 -0.026348446
0.58626807 -11.005724 -0.025328141
0.97432315 -10.935019 -0.054838907
1.3452386 -10.805306 -0.014897626
2.3808744 -10.78368 -0.045215774
2.5378251 -10.84462 -0.044164266
3.2601671 -10.869146 -0.042777505
3.5747316 -10.663431 -0.06973587
3.7332404 -10.583273 -0.068336569
4.2794209 -10.486551 -0.075949483
4.7826018 -10.527125 -0.031431235
4.8727098 -10.552262 -0.031311713
5.3036509 -10.282937 0.0015236326
-11.633387 -12.117442 0.13232182
-11.339402 -12.061017 0.14086314
-11.028063 -12.04821 0.17505719
-10.672355 -12.150385 0.014284763
-8.0089874 -11.717141 -0.05258764
-7.3439317 -11.428214 -0.023785312
-6.0164356 -11.316314 0.13821821
-5.7627835 -11.347115 0.13738607
-5.3522563 -11.357102 -0.048994008
-4.9269753 -11.285285 0.024140436
-4.489953 -11.284024 0.060288791
-4.1089234 -11.192145 0.093811005
-3.910177 -11.199839 0.1228811
-3.5193346 -11.302484 0.14397021
-2.8509636 -11.111919 0.18429655
-2.6679041 -10.963692 0.18041587
-1.9446127 -11.13037 0.14989305
-1.5705702 -11.074956 0.13577943
-1.2027187 -11.03928 0.12176187
-0.90455365 -10.8255 0.093402609
-0.58565187 -10.837206 0.063494787
-0.12905538 -10.815026 0.033530492
0.28480858 -10.639477 0.003731396
0.69970238 -10.655954 -0.025280613
0.91770327 -10.474299 -0.024207044
1.2743107 -10.56809 -0.052537706
1.6257051 -10.409927 -0.016603209
2.2322619 -10.430631 -0.045877587
2.7618701 -10.480623 -0.010478113
3.0648608 -10.331234 0.010805439
3.4828274 -10.314277 -0.04154345
3.757695 -10.294313 -0.045544494
4.3088603 -10.154078 -0.074245706
4.6991987 -10.098048 -0.032276459
4.8024302 -10.153018 -0.03203214
5.2603083 -10.047942 -3.7442893e-05
-12.155445 -11.621904 0.066260621
-11.667932 -11.77986 0.12971772
-11.295007 -11.643159 0.13711901
-11.037679 -11.687304 0.17121206
-7.3260236 -11.245674 -0.025220256
-6.1636581 -11.073185 -0.08751221
-5.8270802 -10.995961 -0.050277296
-5.3814068 -10.935137 -0.013330247
-4.9905038 -10.958714 0.021994028
-4.5301213 -10.883943 0.056498561
-4.1244731 -10.811646 0.089087531
-3.8917024 -10.611604 0.1198446
-3.4971018 -10.59263 -0.074499369
-3.1610506 -10.895903 0.18003963
-2.429966 -10.707471 0.17393531
-2.190614 -10.562244 0.1701588
-1.7772316 -10.620624 0.13988124
-1.197723 -10.637426 0.13410325
-0.85186088 -10.537251 0.11475773
-0.64452231 -10.439629 0.08926475
-0.20596185 -10.401914 0.060774546
0.22879991 -10.295113 0.031582523
0.55917645 -10.211701 0.0033680461
1.0200186 -10.190724 -0.024064709
1.3916478 -10.210088 -0.051401023
1.6117367 -9.9627199 -0.049670216
2.2277696 -9.9642258 -0.045392808
2.617044 -9.9340391 -0.04254679
2.7448337 -9.8477707 -0.021143794
3.524507 -10.025762 -0.041419148
3.8705213 -9.8831921 -0.064506441
4.0068116 -9.8644133 -0.063490801
4.4197307 -9.7362785 -0.071840055
4.8260107 -9.902812 -0.019025024
5.2163815 -9.8172235 -0.001665093
-12.524736 -11.262303 0.018003959
-11.998723 -11.367208 0.05165993
-11.641906 -11.321801 0.12579149
-11.327201 -11.316605 0.1348338
-11.155149 -11.280304 0.097335756
-6.8692241 -10.575524 -0.027744737
-6.7968421 -10.608194 -0.02740496
-6.2338471 -10.64307 -0.086975262
-5.8495245 -10.631907 -0.05064575
-5.3904295 -10.532831 -0.014824491
-5.0125146 -10.478889 0.018886913
-4.6124454 -10.429799 0.052308034
-4.2267671 -10.388556 0.08403568
-3.8675888 -10.304177 0.14680956
-3.4392478 -10.256412 0.11349951
-3.2489529 -10.103694 0.11084317
-2.5157609 -10.268682 0.17663215
-2.3232963 -10.164289 0.17421763
-1.8200966 -10.203826 0.16119052
-1.5315807 -10.022401 0.15669496
-0.87065113 -10.194378 0.12140207
-0.56851876 -10.158669 0.10966586
-0.24383412 -10.004899 0.08530964
0.14222705 -9.9145079 0.057532508
0.52558732 -9.8580837 0.030070271
0.90407145 -9.7963562 0.0036566965
1.3112688 -9.7316208 -0.022926163
1.7197955 -9.6773834 -0.048632685
2.2427175 -9.6155519 -0.044895533
2.5992317 -9.7469835 -0.042458724
2.9333165 -9.5869493 -0.010628723
3.0977969 -9.3370066 -0.0014519505
3.8996027 -9.520833 -0.062798589
3.9694517 -9.2419014 -0.042457357
4.4833722 -9.4608212 -0.064620629
4.6906986 -9.2342949 -0.042147629
-12.518781 -11.18664 0.017404441
-12.410393 -11.090309 0.016548041
-11.643761 -11.113378 0.12408848
-11.558863 -11.106768 0.067958787
-6.9738646 -10.448855 -0.028694984
-6.8187675 -10.498088 -0.028139617
-6.2440834 -10.287339 -0.086370528
-5.925952 -10.199545 0.12230444
-5.4487028 -10.17041 -0.016155493
-5.0256071 -10.095973 0.016450312
-4.665875 -10.118469 0.0494898
-4.2349501 -10.044674 0.079853192
-3.9141347 -10.006298 0.17372401
-3.4944899 -9.9626637 0.13947068
-3.0642004 -9.9516659 0.10824409
-2.7680476 -9.7381115 0.10464036
-1.9204043 -9.7927189 0.16532867
-1.5084383 -9.8681812 0.15299849
-1.1383514 -9.6418104 0.14762901
-0.54563427 -9.7666664 0.12625067
-0.12082602 -9.6229553 0.10291147
0.1518389 -9.4964666 0.080628172
0.48699382 -9.4313507 0.054542188
0.88665128 -9.4360867 0.029294033
1.2764841 -9.3571253 0.0042118952
1.6018207 -9.2637815 -0.021697327
2.1811683 -9.2319756 -0.044904459
2.3353345 -9.2346268 -0.043792631
3.0130703 -9.1356373 -0.010636188
3.1155593 -9.1094141 0.0085494258
3.7818136 -9.0001602 -0.061439693
4.168932 -9.032382 -0.058875348
4.3115497 -8.8286657 -0.05700798
4.7897358 -8.8098135 -0.045624997
5.2358904 -8.6976109 0.025891539
-12.259983 -10.657948 -0.004771661
-11.685946 -10.694376 0.057901863
-11.62082 -10.634917 0.057133947
-8.9624805 -10.30172 0.06746085
-8.8736982 -10.199469 0.066284135
-5.9614382 -9.8304892 0.11755376
-5.5572605 -9.7443609 0.14625371
-5.0694709 -9.6472273 0.013677079
-4.6496625 -9.6801043 0.045439947
-4.3301458 -9.590807 0.074602976
-3.9732423 -9.5855923 0.19564305
-3.5056694 -9.5683107 0.16278364
-3.1870527 -9.4178219 0.15839146
-2.7837996 -9.4086742 0.12770461
-2.3608403 -9.4066429 0.099277973
-2.157162 -9.1962814 0.095966145
-1.5848554 -9.4749126 0.15790814
-1.16043 -9.2076845 0.15222494
-0.71659017 -9.2677402 0.13891365
-0.16056441 -9.3185978 0.10798627
0.23345566 -9.2565107 0.077849612
0.42686084 -9.077837 0.076688007
0.79980254 -8.9801588 0.051915128
1.1685933 -8.8788633 0.027103875
1.5730895 -8.8488388 0.0040670037
1.9383076 -8.7560902 -0.020055268
2.3219087 -8.8418455 -0.043435063
2.7182605 -8.7090282 -0.013798889
3.2322974 -8.8784237 0.013782922
3.7469239 -8.6926298 -0.060394812
4.2044401 -8.7500095 -0.057431109
4.260509 -8.7259903 -0.056932971
4.8717337 -8.5145044 -0.046082631
5.1663046 -8.4657898 0.023518275
-9.5865583 -9.7829142 0.003687989
-9.2252808 -9.8752184 0.036887776
-5.9466829 -9.402667 0.11179484
-5.5820537 -9.3738403 0.1404842
-5.1524334 -9.341733 0.1686805
-4.691205 -9.2410202 0.041554201
-4.3462396 -9.2368488 0.070438683
-3.799185 -9.3443298 0.21283798
-3.4185088 -9.2024508 0.18340428
-3.1970985 -9.1247931 0.18044454
-2.8109007 -9.0377226 0.14912955
-2.369992 -9.0301847 0.12013973
-1.9973822 -9.0157957 0.093157515
-1.63871 -8.8139992 0.090311915
-0.72097766 -8.7742357 0.14256598
-0.32494912 -8.7953873 0.12815638
0.20301604 -8.863266 0.10138115
0.51199985 -8.7338457 0.092037365
0.77808714 -8.5821218 0.072482705
1.1072928 -8.5247707 0.049446721
1.4515553 -8.5491314 0.026863802
1.965353 -8.5067015 -0.020273257
2.386528 -8.2932138 -0.017229393
2.674849 -8.3923874 -0.014650721
2.9735811 -8.2626696 0.0078820027
3.6977599 -8.161952 -0.058508359
3.8322175 -8.2890654 -0.04167283
4.3465552 -8.2642584 -0.03576088
4.5896287 -8.1747227 -0.015012491
-9.4980774 -9.6330547 0.0024152957
-8.6292591 -9.1796465 -0.011027325
-8.440691 -9.3083086 0.020738658
-5.9289398 -8.9957094 0.10638203
-5.6079593 -9.0270615 0.13520359
-5.2207813 -8.9292126 0.16150287
-4.7837729 -8.8658695 0.03845017
-4.3994875 -8.840888 0.065960065
-4.0876098 -8.7587233 0.096850887
-3.8201017 -8.8859739 -0.071687877
-3.0302348 -8.8366346 0.19478936
-2.7905827 -8.7376137 0.169412
-2.4469185 -8.5720816 0.16422705
-2.0569539 -8.5410805 0.136969
-1.676101 -8.5043087 0.11016193
-1.2731848 -8.4386826 0.08488676
-1.0455817 -8.3303404 0.083715841
-0.2978214 -8.3759756 0.13412285
0.0020092428 -8.4796762 0.12130986
0.33561102 -8.2716579 0.11735262
0.8592248 -8.3346252 0.06975086
1.1270144 -8.1737299 0.069818646
1.4780709 -8.0325499 0.04744098
1.970253 -8.1212683 0.0039664134
2.3090544 -8.1246881 -0.018139254
2.6728206 -8.1275187 -0.015066318
3.144979 -8.0445547 0.024530049
3.5092854 -7.8017054 0.024634425
3.8031323 -8.032443 -0.041416187
4.1276283 -7.964922 -0.025531933
4.6923332 -7.7040119 0.013894934
-13.175392 -9.4625425 0.18920816
-8.7058849 -8.92101 -0.012514558
-8.4457664 -8.9583588 0.02047639
-5.9149346 -8.6176014 0.10145688
-5.6033177 -8.5348349 0.12753028
-5.2376304 -8.5234613 0.15415816
-4.7951708 -8.438427 0.034782935
-4.4591675 -8.4244671 0.061376546
-4.1351933 -8.4456844 0.091733173
-3.8446736 -8.4336872 -0.070690066
-3.1398921 -8.3917284 0.19897035
-2.6918094 -8.4111366 0.17593305
-2.3420503 -8.312705 0.1777467
-2.0796723 -8.2449074 0.15531462
-1.7697414 -8.0640068 0.15038823
-1.3916628 -8.0501509 0.1261379
-0.83202541 -8.0299406 0.079429135
-0.51978219 -7.8725352 0.078046784
0.087920442 -8.0732183 0.128392
0.49913493 -8.0195265 0.11187702
0.87625527 -7.9873052 0.089412346
1.2220254 -7.7979674 0.065594345
1.43563 -7.7325726 0.066731915
1.8668623 -7.6477985 0.023765098
2.2818334 -7.6231904 0.0045158826
2.6102054 -7.5507255 -0.016456079
2.95187 -7.5557275 0.010742549
3.6027765 -7.288321 -0.055479467
3.6990397 -7.307982 -0.054879546
4.1089888 -7.2117414 -0.027423421
4.4546003 -7.2713232 0.0086054169
-6.106626 -8.2100401 -0.081973761
-5.6049643 -8.1975298 0.12242046
-5.2903862 -8.0894918 0.14682503
-4.944582 -8.0784693 0.17080437
-4.5105109 -8.0282564 0.05711497
-4.2457819 -8.0291891 0.08524245
-3.8864369 -8.0215836 0.10043631
-3.3395245 -7.8826599 0.2109866
-3.0084984 -7.7647076 0.20395748
-2.4957952 -7.927721 0.18540819
-2.1138086 -7.753386 0.28442708
-1.870216 -7.7033978 0.28077924
-1.3368915 -7.6639557 0.14027445
-0.93137479 -7.6193004 0.11728668
-0.5817008 -7.5598173 0.094399989
-0.216563 -7.5193558 0.07361564
0.77247941 -7.4263844 0.11624309
1.245818 -7.51582 0.074952915
1.4985625 -7.4340959 0.063371301
1.7550908 -7.2867365 0.064094082
2.2217126 -7.2192559 0.024124268
2.6805396 -7.134953 0.0062681027
2.825331 -6.9621334 0.035344806
3.5580461 -7.1442122 -0.055183291
3.647016 -7.2073274 -0.05482012
4.0643253 -7.1354842 -0.027979046
4.432682 -6.8524876 0.004995279
-6.0886197 -7.8221493 -0.081098981
-5.8818645 -7.8125911 0.091262907
-5.3382902 -7.7768831 -0.023974527
-4.9761314 -7.6908016 0.16316085
-4.568645 -7.6207995 0.052890364
-4.3098049 -7.626482 0.078929752
-3.9765408 -7.4473534 -0.085618943
-3.4469256 -7.3342171 0.10294236
-2.8394482 -7.6073694 0.19718124
-2.4930651 -7.4457436 0.18893133
-2.0235252 -7.4104605 0.27993011
-1.7363676 -7.4487381 0.26935875
-1.3913667 -7.2868714 0.26105058
-0.97474313 -7.3142662 0.13184865
-0.59355092 -7.1555614 0.12879081
-0.19486618 -7.1392126 0.087940425
0.21277976 -7.0743937 0.068743885
0.42088214 -6.8820176 0.067003444
1.0842571 -7.0316191 0.10858719
1.5682477 -7.010129 0.069173843
1.8353264 -6.873455 0.059577342
2.2086432 -6.8397446 0.04266553
2.5431976 -6.8040347 0.024630662
2.821646 -6.6990156 0.018357892
3.2008324 -6.7029343 0.03658006
-6.0874987 -7.4296889 -0.080220059
-5.8644905 -7.3969822 0.086189047
-5.3928828 -7.3528452 -0.025103521
-5.009665 -7.2846498 0.15537255
-4.6089635 -7.3197026 0.049854208
-4.2190304 -7.1944203 -0.07475169
-3.946173 -7.1741271 -0.086107038
-3.5754454 -7.0547142 0.094029501
-2.1215806 -6.8201718 0.28930563
-1.6389356 -7.048615 0.27886787
-1.2414569 -6.9357896 0.26369771
-0.99086916 -6.9160409 0.2443984
-0.66949427 -6.7494097 0.23729382
-0.18288717 -6.7562213 0.1203483
0.13960707 -6.6830082 0.10091667
0.60985923 -6.6114593 0.063975021
0.83737636 -6.5920563 0.065607131
1.1837118 -6.4131818 0.074043423
1.9193079 -6.3914938 -0.043498233
2.1931615 -6.4812765 0.058822874
2.4988544 -6.3578568 0.041420553
2.7551472 -6.3665094 0.036047678
3.1515675 -6.3118644 0.027258251
-6.1136341 -7.0924325 -0.079489559
-5.850502 -7.011919 0.081640825
-5.4603992 -6.9323478 -0.026093196
-5.1427646 -6.9016309 -0.0016973875
-4.4822736 -6.9890213 -0.080653101
-4.2297173 -6.6673303 0.040996809
-3.9787514 -6.791461 0.06327194
-3.5758209 -6.7420149 0.087150589
-2.2128439 -6.6411867 0.28743038
-1.9124568 -6.5400782 0.2793937
-1.4505578 -6.5470862 0.26843202
-1.1126432 -6.4177761 0.25932932
-0.48552594 -6.5315933 0.22825162
-0.25437593 -6.3274479 0.22021191
0.059510738 -6.222847 0.21741079
0.47836652 -6.2421799 0.093498245
0.89114833 -6.17766 0.077257305
1.3183478 -6.0888548 0.062182847
1.5609218 -5.949223 0.065991655
2.1888573 -6.0053692 -0.022359997
2.4951541 -5.9907932 0.056761075
2.8033514 -5.8625789 0.040772606
3.1172769 -5.9871392 -0.042174324
3.5552144 -5.8100004 -0.032433674
-5.8336916 -6.6052051 0.076973766
-5.56423 -6.6512427 0.099853501
-5.2499843 -6.4291267 -0.052170645
-4.613678 -6.4436498 0.13373266
-4.2951369 -6.4541926 0.039115373
-4.0022798 -6.2833319 0.055249576
-3.7099476 -6.3171077 0.078876778
-1.0541968 -6.1349235 0.2528685
-0.77716672 -6.1642184 0.24436091
-0.14680822 -6.0932469 0.22171916
0.056156918 -6.0427704 0.20960061
0.4355914 -5.837255 0.20390822
0.85431409 -5.7940102 0.1040508
1.2113487 -5.6828718 0.088559896
1.5967733 -5.656425 0.058541019
1.9862401 -5.6047015 -0.041983411
2.4279873 -5.5805492 -0.0026109703
2.8332832 -5.5011225 0.055969093
3.0401855 -5.5501747 -0.041880883
3.4480009 -5.4510851 -0.03500396
-5.9926362 -6.2874837 -0.07727237
-5.5490947 -6.1582565 -0.076126665
-5.1486001 -6.1138272 0.087978646
-4.8361526 -6.103898 0.10762593
-4.3456626 -6.0275826 0.035090644
-4.1129003 -6.0357428 0.052109536
-3.7309952 -5.9457655 -0.051753685
0.082552239 -5.58951 0.22500555
0.5073173 -5.5762148 0.201894
0.85851717 -5.3888545 0.18981914
1.2438055 -5.3858285 0.09860383
1.5891711 -5.310956 0.085582718
1.9795856 -5.225224 0.057013061
2.4022322 -5.1738524 -0.0044520013
2.8073883 -5.1234837 0.034319934
3.1005032 -5.1232405 0.05609021
3.4207187 -4.9772921 0.048628706
-5.4750347 -5.6366181 -0.074670434
-5.1931643 -5.6903939 0.12826559
-4.8173881 -5.5979099 0.09931922
-4.5241156 -5.5289636 0.010905076
-4.16748 -5.6795058 -0.091051169
0.92027438 -5.1645732 0.19091499
1.2037418 -4.9543824 0.17710637
1.5244128 -4.8599343 0.1795757
1.9191405 -4.8392844 0.080940157
2.3093247 -4.7680101 0.070675492
2.8084292 -4.7383695 0.031095389
3.0507588 -4.7095819 0.050911281
3.376559 -4.6961937 0.043503676
-5.5624781 -5.2738504 0.082589254
-5.2742248 -5.2884955 0.078985199
-4.8496957 -5.3072925 -0.009943556
-4.4557395 -5.2954726 0.028919999
-4.2531586 -5.2391491 -0.076519415
1.1928692 -4.7064958 0.19013757
1.4837232 -4.6382461 0.16967265
1.9242778 -4.5053382 0.088584974
2.2871029 -4.3908701 0.078827292
2.6281674 -4.3675919 0.010143373
3.0001059 -4.3635778 0.046518002
3.3103616 -4.3215995 0.036688756
-5.7576075 -4.9818697 0.060215067
-5.3116388 -4.9611578 0.097294703
-4.9094915 -4.8794923 0.00914241
-4.4865446 -4.9756002 0.026365284
-4.3154621 -4.7494779 -0.075711876
1.6044803 -4.2530937 0.31641966
1.9055047 -4.1810212 0.16187562
2.2196162 -4.006772 0.16444857
2.5948598 -3.9088373 0.076486841
2.9335356 -3.9485302 0.041272361
3.2870944 -3.8934612 0.044536587
-5.6905646 -4.6516156 0.056637686
-5.3354759 -4.5078254 0.091891214
-4.9851394 -4.4734759 0.026829157
-4.5604382 -4.4927602 0.023084436
-4.2723393 -4.3377357 -0.077515215
1.9077016 -3.8120475 0.29296252
2.2056704 -3.6037359 0.03759535
2.5150259 -3.5845323 0.15932269
2.8871367 -3.4899502 0.036191512
3.2569172 -3.4917629 0.053012241
-5.7107692 -4.251699 -0.05039078
-5.3943052 -4.1158643 0.088336945
-5.040194 -4.0634427 0.024694126
-4.6908059 -4.0034041 -0.075257286
-4.3353996 -4.1381402 -0.07783363
2.1775768 -3.1352026 0.03111567
2.4996738 -3.1656842 0.061788384
2.8527567 -3.1220226 0.032395054
3.2264924 -3.100173 0.044467527
-5.6917033 -3.6502378 0.049603779
-5.4454341 -3.7266369 0.065591648
-5.0919733 -3.6792872 0.02305964
-4.5838809 -3.7207 -0.078718409
-4.421473 -3.681376 -0.078364886
2.163291 -2.8469865 0.027378481
2.4841409 -2.7596807 0.055159185
2.8097179 -2.7181101 0.028409775
3.1109154 -2.6975296 0.034246597
-5.7333899 -3.3822322 0.048720408
-5.5413551 -3.3302193 0.06421198
-5.1343455 -3.2897763 0.021680508
-4.5194864 -3.3961349 -0.080690205
-4.4202857 -3.3222022 -0.080452465
2.1190834 -2.3593678 -0.03517573
2.4666128 -2.3630469 0.049160887
2.7620728 -2.3308089 0.024798218
-5.7844501 -2.828265 -0.065652549
-5.5376792 -2.920198 0.061629239
-5.2104115 -2.8364034 0.090231836
-4.9001927 -2.8523974 -0.032132793
-4.4295707 -2.795188 -0.077231839
2.0817878 -1.9884582 -0.034545138
2.3995781 -1.9813354 0.042570535
2.627815 -1.9185504 0.1161509
-5.6086903 -2.4924927 0.043314252
-5.2312384 -2.5399024 0.088354215
-4.826633 -2.3969464 -0.016389418
-4.5622559 -2.5176461 -0.077819027
2.1338019 -1.6238121 -0.032871056
2.3732531 -1.5922726 0.037788142
2.6010411 -1.4950726 0.21365194
-5.6203675 -2.1305857 0.042745028
-5.3051429 -2.0660629 0.087245166
-4.8320804 -2.0372851 -0.016085841
-4.6630116 -1.8248086 -0.0023739785
-3.6774526 -1.8868619 -0.072589554
2.1179409 -1.3849702 -0.032191217
2.410301 -1.112197 0.1861252
2.6046216 -1.0984216 0.20224221
-5.6407409 -1.7585244 0.05971754
-5.3855891 -1.7027651 0.087843239
-4.9387903 -1.5970976 0.015764404
-4.678854 -1.5205555 -0.0019195639
-3.6677363 -1.5245144 -0.070526212
-3.4675057 -1.3187484 -0.075612627
2.3025813 -0.72586703 0.0017532595
2.5325854 -0.83232123 0.19031276
-12.057072 -2.0991466 0.24182774
-11.894656 -2.0721216 0.23744802
-5.6336551 -1.3312936 0.042959657
-5.3945169 -1.357904 0.054774862
-4.9702411 -1.2408948 0.076440468
-4.7242985 -1.2900234 0.013095681
-4.0462737 -1.0551476 -0.056642439
-3.664017 -1.2141498 -0.068709821
-3.4705167 -0.97607327 -0.066689722
2.3957572 -0.504219 -0.0037607215
2.4362459 -0.54351676 0.01159044
-12.127372 -1.6219411 0.20263068
-5.6254506 -1.0016264 0.043527719
-5.3633752 -0.91568571 0.05480716
-4.9818549 -0.84082055 0.076891378
-4.7747316 -0.73109961 0.015301663
-3.873955 -0.7102685 -0.054701742
-3.3680794 -0.65231931 -0.064384222
-3.2006519 -0.44943812 -0.062593192
2.3164928 0.081552401 0.29331285
2.5036669 0.12372883 0.3209371
-5.6874738 -0.65930796 -0.068361446
-5.4436154 -0.48595506 0.090079993
-5.0723414 -0.4872185 0.080258206
-4.7961564 -0.41745779 0.017028067
-3.8798566 -0.30397531 -0.041053332
-3.3432233 -0.40497962 -0.062731408
-3.1596935 -0.38172817 -0.070333228
2.2983437 0.35817936 0.29686698
2.4573195 0.46786889 0.18670779
-5.7371264 -0.02305986 -0.067285962
-5.4721699 -0.18760933 0.076444313
-5.1118345 -0.044868171 0.083681658
-4.8275857 0.045537118 0.020352859
-3.8234527 -0.015664876 -0.03933638
-3.4907801 0.16144004 -0.049087904
-3.0741172 0.19539447 -0.057884034
-2.8497014 0.29288897 -0.056526046
2.1549523 0.95436901 0.018871468
2.4009056 0.85779166 0.19350952
-5.5335689 0.32095525 0.065163165
-5.0501418 0.28549322 0.02546883
-4.778542 0.35452652 0.036207531
-3.8231585 0.67657453 -0.011407662
-3.5556548 0.53735751 -0.035947006
-3.1416056 0.6172421 -0.055045452
-2.8718781 0.51336795 -0.054995887
2.1259763 1.2175202 -0.022181297
2.393589 1.2628132 0.20983906
-5.8968692 0.60167193 -0.060762428
-5.5899973 0.72477764 0.10333301
-5.2601275 0.78319561 0.064072266
-4.8324423 0.80193275 0.041557331
-3.8741663 0.8240599 -0.0095281973
-3.62169 0.91677892 -0.021459445
-3.2421229 0.98463094 -0.032832306
-2.947984 1.0490628 -0.04194079
1.7354726 1.7292962 0.00068538263
2.0517015 1.6757927 -0.018930029
2.3866169 1.6500441 0.22921072
2.5634108 1.8113806 0.052767325
-5.6186638 1.1003804 0.024996419
-5.2606044 1.0832402 0.19340676
-4.8347349 1.185779 0.060425285
-3.9519269 1.2647107 -0.0041410513
-3.7236316 1.3571498 -0.0048772283
-3.185272 1.4093812 -0.028722152
-2.8525107 1.392269 -0.038750682
1.1933346 1.9923816 0.0054830797
1.5050317 1.9533947 0.0091663487
1.8865918 2.0276647 0.0080735981
2.3078063 2.0933166 0.13725117
2.6072431 2.0510762 0.058854576
-5.7006416 1.4804555 0.04710703
-5.3625407 1.5257971 0.092136517
-4.8180614 1.5893145 0.065906316
-4.6647043 1.6446145 0.049612697
-3.8745639 1.5387602 -0.048481867
-3.6607728 1.6670133 -0.048328485
-3.4786716 1.7458063 -0.056976832
1.0716302 2.2950077 0.025198329
1.3856601 2.3290617 0.0064694211
1.8951139 2.3733139 0.022655558
2.2740717 2.4530277 0.15094624
2.5642486 2.4979744 0.067811638
-6.0045986 1.9454712 0.027403314
-5.7450142 1.8631692 0.052599851
-5.3076806 1.950822 0.097814709
-4.8399096 1.9514847 0.057153765
-4.6812286 2.0757661 0.0566714
1.1043959 2.7086818 0.036227319
1.4860762 2.860008 0.0068445913
1.7931678 2.8298743 -0.00040702894
2.2920375 2.868279 0.17018284
2.6053185 2.9025493 0.078327477
-5.6253066 2.3428175 0.23660164
-5.3658266 2.3319936 0.12300929
-5.0796924 2.3887348 0.10105522
-4.6756725 2.379523 0.061802316
-4.269887 2.6142328 0.051357601
1.0878271 3.0419798 0.044640552
1.4145507 3.1594925 0.052140493
1.7478247 3.0196702 0.011786647
2.1783671 3.2526999 0.054999802
2.5363007 3.2934368 0.098851457
-5.6513791 2.6189444 0.23854698
-5.4942832 2.6186335 0.13191392
-4.8510089 2.6563518 0.028485302
-4.5364466 2.8264554 0.3397949
-4.4165506 2.8132844 0.17528637
0.98246825 3.31516 -0.019889411
1.9228346 3.4333425 0.039668176
2.044898 3.6396961 0.073774546
2.5622833 3.7012515 0.1108627
2.7151692 3.8775089 0.10515878
-5.7019248 3.1648195 0.25512069
-5.5169134 3.0453179 0.25277725
-5.286685 3.2254391 0.18752411
-4.774899 3.1047778 0.019186679
-4.3002548 3.1377578 0.32221165
-3.4128759 3.5641041 0.022393409
-2.9543462 3.6341479 0.016715083
0.43977407 4.0253615 0.027622599
0.98926628 4.0703826 0.09565036
1.3291397 4.0778127 0.10040495
1.6621509 4.0381455 0.091357782
2.0744441 4.0545354 0.12562078
2.4740973 4.0788379 0.11998981
2.7582126 3.9650919 0.10827276
-5.633955 3.4374917 0.097044289
-5.1280947 3.5113435 0.086598605
-3.7827311 3.8161137 0.051673505
-3.4886222 3.8240049 0.062007058
-3.1423957 3.8323965 0.059627723
-2.7726991 3.9524868 0.060072508
-2.3945048 4.0523758 0.19983633
-1.0231876 4.079463 0.014814842
-0.76697254 4.1086249 0.060058761
-0.37849659 4.2093711 0.19004203
0.035870053 4.1816468 0.19031531
0.42754987 4.2220354 0.19620977
0.8409307 4.2239351 0.20202379
1.2626967 4.2936859 0.21359251
1.584408 4.2992926 0.22096293
2.0597475 4.3453612 0.14928351
2.2598476 4.3307481 0.15284784
-3.592864 4.1482096 0.13490631
-3.1667399 4.207346 0.13076039
-2.7827501 4.2392011 0.11214054
-2.4020739 4.3181348 0.12576483
-2.0067413 4.3793225 0.08190088
-0.6285913 4.3471088 -0.010020949
-3.2278059 4.4141426 0.1058965
-2.8804281 4.5580268 0.091341808
-2.3861487 4.5215821 0.087522388
-1.9367636 4.5696836 0.08708261
-4.2045369 6.1505713 -0.011388931
-3.8957477 7.3534408 -0.014233697
-3.3337867 7.3697805 0.0020808689
-3.8810685 7.7900405 -0.0079616606
-4.5493512 8.1279202 0.019971643
-4.8852625 8.4004107 0.021167602
-4.6267409 8.2689428 0.021488439
-4.2905922 8.5222158 0.0011656322
-6.889246 8.7903862 0.076149687
-6.5607452 8.8110695 0.15151951
-6.2654881 8.8716154 0.1485927
-4.7747312 8.8182831 0.070023656
-4.7372222 8.8830662 0.070859432
-6.7849636 8.8788376 0.15564974
-6.5205703 9.1007366 0.13319182
-6.2743459 9.2567997 0.17596953
-5.9225054 9.2924223 0.17453104
-5.5475168 9.133193 0.063656494
-5.1165919 9.4108477 0.22517337
-4.8284583 9.4314203 0.26678091
-4.2962317 9.5093126 0.24943326
-3.8203964 9.5296059 0.22072111
-6.222333 9.469244 0.21117251
-5.7989826 9.4991417 0.17726696
-5.4754066 9.7499018 0.148408
-5.0309377 9.7131062 0.34137806
-4.5651798 9.7705574 0.3395763
-4.2558932 9.7382679 0.33613393
-4.0087347 9.7513971 0.33497697
-5.6862459 9.8158665 0.036141958
-5.5454311 9.8764353 0.15097909
-4.9885082 9.9869556 0.31798369
-4.714469 9.9805651 0.31588343
-4.3061528 10.139771 0.28561822
-4.0068212 10.290495 0.25706276
-4.6732521 10.321925 0.023682799
-4.1781197 10.345204 0.25910211
-4.0426908 10.384308 0.25985566
-2.6284573 10.780136 0.19734786
-2.4573929 10.851162 0.23873822
-1.8139524 11.008238 0.33640939
-1.667677 10.982919 0.33551428
-1.2268256 11.05367 0.34654996
-0.82169235 11.098327 0.31591684
-0.41585922 11.158683 0.28723398
0.11288621 11.200502 0.29146907
-3.014462 11.033725 0.16297279
-2.7305188 11.087691 0.24475475
-2.4236033 11.037827 0.24380435
-2.0275445 11.173279 0.2149872
-1.620609 11.250057 0.18405165
-1.262786 11.253623 0.18556844
-0.85189986 11.33744 0.29064006
-0.44594795 11.403789 0.32773268
-0.099971913 11.423482 0.29696745
-4.7751122 -9.524929 0.38760099
-4.8108158 -9.3032398 0.37980476
-4.3834257 -9.2393675 0.37041169
-3.9979403 -9.0742064 0.35827771
-4.8503785 -8.8958759 0.36523336
-4.4318762 -8.9946947 0.38490087
-3.8721209 -8.8614149 0.34817785
-3.6078479 -8.7723246 0.34108821
-3.3700159 -8.6488438 0.33318111
-4.8814259 -8.5036955 0.35131714
-4.546464 -8.4665813 0.37506738
-4.0740094 -8.3792353 0.65946239
-3.6630089 -8.3088503 0.64222896
-3.2097797 -8.4686203 0.32405806
-2.8888733 -8.3162537 0.31436151
-2.5301425 -8.0840654 0.301422
-4.9167495 -8.0890541 0.33692864
-4.6552925 -8.058136 0.35997289
-4.0359764 -8.1108456 0.66742647
-3.73786 -8.0188389 0.64314264
-3.2046368 -7.9245977 0.60214317
-2.9433565 -7.8329492 0.58896816
-2.6325161 -7.6469698 0.56820232
-2.1742768 -7.7844591 0.28615528
-1.7808391 -7.5502157 0.29118058
-4.9473062 -7.6983662 0.32360512
-4.6347742 -7.6878328 0.34412664
-4.1494446 -7.7451162 0.64822286
-3.7445102 -7.6617513 0.62856412
-3.2178214 -7.6815815 0.60921508
-2.9007955 -7.5921898 0.58787698
-2.5428627 -7.5368881 0.55812716
-2.1857395 -7.3736234 0.5389452
-1.9473487 -7.3138447 0.53041643
-4.9876189 -7.2543392 0.61759895
-4.662035 -7.2668786 0.62953484
-4.0399294 -7.1781263 0.62722582
-3.8699534 -7.0810218 0.61308438
-3.3880482 -7.2799077 0.59716266
-2.8927152 -7.2371669 0.57111663
-2.5543571 -7.080842 0.5504536
-2.0873377 -7.1359358 0.53500217
-1.7827318 -7.0406041 0.50716358
-1.4303309 -6.8940296 0.49143064
-1.1022565 -6.782114 0.47978801
-4.943645 -7.0454283 0.30078554
-4.3254933 -6.6513195 0.57209867
-4.1006007 -6.5860586 0.5739181
-3.4416735 -6.8969774 0.58281094
-3.0865006 -6.7532792 0.55918217
-2.6750007 -6.715652 0.54350615
-2.2931063 -6.5729222 0.52128124
-1.7235581 -6.6515374 0.49962246
-1.3755593 -6.609767 0.48462331
-0.98233843 -6.5476065 0.46076775
-0.69570804 -6.3774834 0.4462173
-0.32836768 -6.2101922 0.43297601
-4.6506033 -6.3703408 0.54729241
-4.5018578 -6.3965826 0.55843294
-4.0994711 -6.3615184 0.55767834
-2.3966122 -6.3284516 0.50845909
-1.920137 -6.137064 0.48157471
-1.3789601 -6.1295257 0.4644807
-1.1001607 -6.006197 0.44982183
-0.53821361 -6.0922785 0.43526557
-0.35903659 -6.0490708 0.42027318
0.016323879 -5.885231 0.4089745
0.26016068 -5.6492567 0.3925758
-5.0641675 -5.9359736 0.55585015
-4.6659751 -6.0283332 0.52693003
-4.4822202 -5.890327 0.52479941
-4.0415049 -6.1596341 0.54916364
-0.62886631 -5.724195 0.70019859
-0.21732578 -5.6570086 0.68737775
0.0091713592 -5.441072 0.66003579
0.45725122 -5.486392 0.3822287
0.68825722 -5.2823744 0.36997473
-5.1703706 -5.6674757 0.53048676
-4.8347101 -5.6775112 0.51409692
-4.5640574 -5.7097974 0.50290918
-0.4252463 -5.184226 0.65147477
0.15570644 -5.2383552 0.63477206
0.37410909 -5.1354761 0.62443691
0.70644128 -4.9771924 0.61117178
1.147382 -4.9270401 0.35271591
1.4108721 -4.7125292 0.3441385
-5.1545191 -5.3413239 0.51153624
-5.0161433 -5.2890882 0.51506108
-4.6237421 -5.3373852 0.51830918
0.35766837 -4.769043 0.59651899
0.76756191 -4.7797985 0.58729118
1.058166 -4.5118399 0.56285399
1.4803785 -4.3210602 0.55835027
1.8527974 -4.2692156 0.33353636
-5.152389 -4.8933549 0.48749292
-5.0874929 -4.7421069 0.47600925
-4.6950688 -4.8774486 0.49151385
1.2540101 -4.3149157 0.54511994
1.5078937 -4.1141429 0.53440702
1.7708451 -4.0311251 0.54005927
2.0197453 -3.841711 0.51897007
-5.2606406 -4.4921846 0.47351128
-5.0909481 -4.5139904 0.4646461
-4.6589403 -4.3465157 0.4489572
1.5574749 -3.8151765 0.71940064
1.8376101 -3.7103293 0.50676489
2.1319461 -3.5957539 0.51554161
2.4128895 -3.4419503 0.52316421
-5.2792115 -4.1513948 0.45849675
-5.1264157 -4.109107 0.44720966
-4.8179984 -3.9050877 0.4391413
1.9010794 -3.3376038 0.67290103
2.1881967 -3.2641916 0.48402184
2.4964414 -3.1545258 0.50026429
2.8419912 -3.0585833 0.50148857
-5.295136 -3.9040387 0.44837606
-5.1555657 -3.7276073 0.43188223
-4.842135 -3.6833258 0.42821088
2.2032859 -2.9444995 0.64781916
2.4714563 -2.7586839 0.65697265
2.7190197 -2.7209229 0.4813078
-5.3228912 -3.2807183 0.43378842
-5.1751318 -3.2507784 0.4136517
-4.8962297 -3.2039802 0.40653244
2.5580363 -2.4431765 0.62882781
2.7234893 -2.4220254 0.45600623
-5.3538785 -3.0250468 0.41742945
-5.2180314 -2.9486029 0.40542954
-4.9418564 -2.8962233 0.39480644
2.5130782 -1.9523194 0.56528145
2.6441851 -1.8220716 0.57326472
-5.4143896 -2.5892859 0.4075132
-5.2937059 -2.4917617 0.39600763
-4.95259 -2.552357 0.65994412
2.4552152 -1.5558269 0.72342336
2.6042733 -1.6439767 0.54958993
-5.2347145 -2.0600123 0.38015392
-5.0039239 -1.8670745 0.63760036
-4.6472163 -1.8632251 0.58032846
2.4473329 -1.2542429 0.48926818
2.62498 -1.1087452 0.51133227
-5.3666453 -1.6993556 0.38230729
-4.935317 -1.5096381 0.61047202
-4.681952 -1.6225142 0.59600878
2.357717 -0.7078706 0.61663461
2.5863345 -0.79653716 0.48696053
-5.3355279 -1.3675957 0.37452728
-4.9285307 -1.2344948 0.60710347
-4.7367868 -1.2568113 0.58922106
2.4210687 -0.53470659 0.59091163
-12.055361 -1.6149319 0.53143698
-11.956278 -1.6022342 0.52639419
-5.4191151 -0.77072042 0.6535551
-5.0076489 -0.84899527 0.60940993
-4.7680335 -1.0003147 0.31612107
2.3388827 -0.10683833 0.59260339
2.4407609 0.13428265 0.6231764
-5.4230709 -0.50398988 0.37511995
-5.0590482 -0.52194679 0.61263561
2.2868397 0.50892448 0.59975356
2.4888408 0.46429381 0.65001249
-5.413362 0.069974542 0.37669289
-5.0439229 -0.049314443 0.61074132
2.2379391 0.87009633 0.59724706
2.4782317 0.87629431 0.48823172
-5.4587655 0.3089509 0.38281995
-5.2026286 0.22736232 0.36150429
2.208796 1.1324205 0.61720294
2.3987589 1.2551247 0.50599015
-5.564373 0.7179985 0.39751825
-5.3629479 0.70497793 0.66553372
2.0882583 1.7169513 0.6545043
2.3969567 1.6569693 0.5486474
-5.4916639 1.1128317 0.40034911
-5.3687582 1.2422639 0.68399072
2.0897896 2.0532615 0.49911451
2.3192601 1.9981716 0.57886827
-5.5931168 1.3729211 0.41504359
-5.2961731 1.6175714 0.39980671
2.0510557 2.3760657 0.53797609
2.3396208 2.4139528 0.63943249
-5.6032486 1.7919152 0.42875218
-5.376646 1.9587023 0.71920198
2.3729141 2.8375952 0.5056473
2.4303944 2.8315864 0.51048219
-5.6140242 2.2213979 0.4403311
-5.3970442 2.3822858 0.43597099
-4.4892225 2.5994749 0.60872954
-4.155582 2.6333063 0.57330251
2.3459685 3.2860754 0.55530387
2.4519861 3.3648064 0.57393706
-5.617219 2.5033844 0.45691961
-5.4355087 2.669893 0.45129603
-4.8749986 2.8711872 0.70420098
-4.6172781 2.8371716 0.63272816
-4.2937932 2.7626951 0.59215671
2.3248715 3.5268197 0.57736284
2.4361956 3.675941 0.61001509
-5.6593451 2.9102688 0.44753298
-5.5012288 3.1698263 0.47975528
-5.1674175 3.2517359 0.74146181
-4.2326627 3.1242425 0.6186735
0.73473048 4.0628858 0.78127408
1.2869045 4.0981665 0.58907735
1.8177412 4.1468959 0.62528151
2.0411737 4.2083406 0.64789695
2.4104893 4.1006932 0.66065383
-5.5709119 3.3526762 0.49376351
-4.6887817 3.5497732 0.677459
-4.4273052 3.5264726 0.64922976
-2.9773135 3.9921768 0.37394831
-2.7281749 4.0443821 0.37902689
-2.4161928 4.0516405 0.61847579
-0.61441743 4.1176248 0.49987531
-0.3502802 4.1459556 0.55837971
0.033455476 4.2027087 0.56760228
0.43855661 4.2227788 0.57674211
0.77175581 4.2401099 0.58825046
1.2843053 4.3231039 0.62022364
1.5810761 4.2552862 0.62597883
2.0056229 4.3074479 0.65858889
2.3287511 4.2947717 0.67305964
-3.1108046 4.2047138 0.68549645
-2.6756985 4.2185111 0.65634465
-2.3736234 4.2543306 0.64177942
-6.0896235 9.2413359 0.40376878
-5.7518101 9.2773495 0.47204453
-5.4377837 9.3507662 0.45492142
-5.1858311 9.3880138 0.45196396
-4.8248968 9.430501 0.41201565
-4.2656093 9.4895926 0.40693226
-3.6837945 9.5497065 0.79247278
-3.4924347 9.5605736 0.76410145
-1.6981307 9.7676554 0.77299792
-1.4040558 9.860836 0.50947434
-1.2099304 9.8084974 0.50642753
-6.0451665 9.419776 0.48620534
-5.7332692 9.5542307 0.46185106
-5.2938938 9.7638092 0.54237497
-5.1162195 9.7246237 0.53726494
-4.8047247 9.7164259 0.53165668
-4.2167187 9.727788 0.52346146
-3.9085605 9.7646656 0.5213722
-3.6684864 9.8794842 0.52467549
-1.7140716 9.8627558 0.78112715
-1.4629014 10.055503 0.52051461
-1.2352724 10.024785 0.51865608
-0.85344172 10.044458 0.52012789
-5.6910138 9.7504578 0.47376841
-5.3472929 9.8637857 0.54841959
-5.0454216 9.8917284 0.54465753
-4.706419 9.9088249 0.54011589
-4.4738584 9.8954868 0.53594202
-1.9618419 10.936264 0.47925025
-1.6814461 10.971128 0.49982935
-2.2308142 11.220103 0.49469608
-2.0624242 11.099692 0.48779374
-1.6336831 11.281047 0.58981931
-1.3948988 11.274877 0.57559603
-4.868463 -8.8653126 0.71945596
-4.4408622 -8.7186089 0.69487047
-4.9110584 -8.4961452 0.69598967
-4.3865705 -8.5448151 0.68103743
-4.1625304 -8.4949322 0.67034513
-4.9399233 -8.129653 0.67260128
-4.6274252 -8.0685024 0.68552548
-4.1437817 -8.1364155 0.67299992
-3.789845 -7.7873869 1.0644295
-4.7306433 -7.7932048 0.66968226
-4.0707617 -7.554657 1.0631772
-3.7399271 -7.6838713 1.0495244
-3.3841043 -7.5383396 1.013634
-3.042032 -7.446867 0.98614079
-2.7776978 -7.3123918 0.95800501
-4.9201822 -7.2030768 1.0699079
-4.7746296 -7.1537209 1.0713362
-4.2154064 -7.2561474 1.0537096
-3.7114656 -7.3353601 1.0281886
-3.3715661 -7.2715178 1.0027357
-2.9513245 -7.1144886 0.95688611
-2.6570313 -7.1251917 0.92989349
-2.2581317 -6.9643521 0.8943758
-1.8652877 -6.817944 0.86296529
-4.666925 -6.7395601 1.0018237
-4.4699273 -6.6520424 0.99385685
-4.0123014 -6.7683053 0.9957754
-3.5637548 -6.8066778 0.97022063
-3.08464 -6.8330746 0.93680269
-2.5564156 -6.7834148 0.90102661
-2.0843151 -6.7259245 0.87188452
-1.7977068 -6.6480198 0.8393929
-1.5079151 -6.5306892 0.8166216
-1.2073119 -6.3926282 0.79234344
-0.91411698 -6.2092266 0.77498215
-4.5646071 -6.4182053 0.96004456
-4.4755321 -6.4187312 0.95355076
-4.1171494 -6.426816 0.94955176
-3.6268618 -6.4903111 0.94637328
-3.145968 -6.3514485 0.89922899
-2.7010088 -6.3163152 0.87022388
-2.3144691 -6.1934581 0.83524752
-1.7700546 -6.0618806 1.0976982
-1.5254154 -6.0728879 1.0885141
-1.1691952 -5.9683924 1.0573788
-0.73197627 -5.9750009 0.73117679
-0.46024066 -5.8476653 0.71265626
-5.0222311 -5.960453 0.96347803
-4.8651819 -5.9592829 0.95028752
-4.4873328 -6.0258093 0.91291666
-4.102304 -6.1121793 0.92561072
-2.3341153 -5.9329104 0.80596876
-1.8591089 -5.8839254 1.085749
-1.4110568 -5.8450637 1.0462576
-1.1931176 -5.8158598 1.0396986
-0.7865876 -5.6645947 0.99272341
-0.38840899 -5.5560546 0.96790832
-0.10893238 -5.3228331 0.92462105
-5.1137238 -5.783751 0.93939161
-4.7577562 -5.6937413 0.90057856
-4.5544372 -5.6975136 0.88438481
-1.6064302 -5.4110899 1.0019319
-1.2320025 -5.3820987 0.9736498
-0.78233242 -5.2470818 0.9333595
-0.32391599 -5.3116593 0.92252213
-0.10734943 -5.1662259 0.89569157
0.28668374 -5.0444503 0.87775385
0.56314218 -4.8861041 0.86094737
-5.1528788 -5.2738199 0.89456058
-4.9986711 -5.2120476 0.87491059
-4.6487799 -5.2844734 0.88115877
-0.3570174 -4.8715377 0.86163044
-0.055518929 -4.7369909 0.83484179
0.42645743 -4.5868368 1.1187456
0.74150109 -4.6350842 0.81577629
0.96732974 -4.4445343 0.79125553
-5.2039046 -4.8816481 0.86395097
-5.0921206 -4.8970699 0.85476243
-4.6890464 -4.9902911 0.85659611
0.053355552 -4.4186292 1.0789267
0.38294128 -4.3972764 1.0651224
0.63815892 -4.3691335 1.0723062
1.0108716 -4.11342 1.0309048
1.4549991 -4.0928774 0.7589947
1.689909 -3.8999412 0.73973936
-5.1927028 -4.633831 0.841398
-5.1412354 -4.5024614 0.82521451
-4.635756 -4.5395193 0.79928505
1.1893675 -3.8527114 0.98144668
1.4249724 -3.7312906 0.97496969
1.7122121 -3.5815208 0.97290057
1.9676151 -3.4872291 0.96464211
-5.2557611 -4.1602111 0.8087402
-5.0858083 -4.025672 0.7806555
-4.7078471 -4.0351734 1.0891671
1.5053213 -3.4770052 0.9195208
1.7385638 -3.295321 0.91183835
2.0982783 -3.0584166 0.9135102
2.3331897 -3.0304108 0.92188275
-5.2538753 -3.8997269 0.78839791
-5.127727 -3.7570324 0.76434219
-4.8302026 -3.8259149 1.0842681
2.1725771 -2.8708708 0.88765949
2.4504638 -2.6881688 0.90215778
2.6772501 -2.5554221 0.89434278
-5.3204479 -3.297013 0.75292146
-5.1174941 -3.2400651 1.0448029
-4.8862128 -3.0752823 1.0106709
2.4299538 -2.3421192 0.8368355
2.6470211 -2.3749056 0.88618249
-5.3597364 -2.9424129 0.73514557
-5.1617808 -2.941453 1.0244838
-4.9443102 -2.7804255 0.99178475
2.519769 -1.959114 0.79402459
2.6150517 -1.8901533 0.80489212
-5.2326503 -2.4866276 0.99913007
-4.9677706 -2.4598291 0.96757728
2.6154671 -1.5844713 0.76426965
-5.2611771 -2.0928867 0.97677308
-5.0520034 -2.0450821 0.93948519
-4.6486092 -1.8789891 0.84451073
-5.2847662 -1.6957529 0.95823568
-4.8376217 -1.4981382 0.86358267
-4.6545529 -1.4865956 0.84312105
-5.2889652 -1.3949202 0.94518477
-4.8699794 -1.2385145 0.86353183
-4.7555795 -1.1766306 0.84392935
-5.3031712 -0.75673622 0.92012191
-5.001482 -0.93030244 0.87724066
-4.7838259 -0.83016825 0.83484316
-12.105139 -1.3515122 0.86289424
-5.3881145 -0.5392409 0.94111133
-5.0715871 -0.52570218 0.88242114
-5.4591498 0.036832582 0.95566219
-5.1100206 0.027213078 0.88911402
-4.8942304 0.1153509 0.85004652
-5.4368501 0.31942856 0.95414644
-5.3259349 0.33270389 0.93479997
-5.4547396 0.64574957 0.965828
-5.3149166 0.6951142 0.9416917
2.3824069 1.7751108 0.77623016
-5.5216146 0.9707582 0.9900344
-5.3157396 1.0871205 0.95774943
2.3326797 2.0898292 0.82041186
-5.5098162 1.5746801 1.017589
-5.3173628 1.5638739 0.98440737
2.3795824 2.4714203 0.90180296
2.4561989 2.5019815 0.92229712
-5.5348287 1.8010925 1.0383993
-5.3702445 1.9715805 1.0218782
2.3314979 2.8828151 0.97688168
2.4213996 2.9161186 0.99945444
-5.6335196 2.3723874 0.77058583
-5.441772 2.3144722 1.061433
-4.5970917 2.6059601 0.90389204
-4.352808 2.6448495 0.89689249
-3.9530413 2.6058354 1.1380557
2.3278222 3.3307507 1.0732243
2.4309707 3.2514994 1.0724554
-5.6454825 2.6541307 0.75436276
-5.3930006 2.7044163 1.0881702
-5.2063746 2.9189031 1.0651362
-4.4694133 2.9187737 0.92326152
-4.3919468 2.8667071 0.9058246
-3.8854713 2.7718115 1.1414424
2.3054106 3.649622 0.82573605
2.4018199 3.6768978 0.84572899
-5.7147002 3.0536594 0.8005569
-5.5039268 3.1220415 0.81180787
-5.1028433 3.2279191 1.0898156
-4.1840777 3.1204596 0.92242366
-0.66369224 3.8892353 0.94317257
0.013360046 3.9748766 0.99803442
